14.56307983,-3.25744295,-3.86077261,6
14.7844677,-3.32888436,-4.00891018,10
14.90275383,-3.26550984,-3.79690289,9
15.05885506,-3.25139618,-3.71041989,13
15.23163795,-3.25594711,-3.67083335,8
14.60754013,-3.32963061,-3.89571857,15
14.81208992,-3.37969327,-3.98319101,13
14.98061371,-3.37626553,-3.92750597,10
15.14593315,-3.36794209,-3.85633445,9
14.63941193,-3.38667989,-3.88833046,9
14.87226295,-3.47254634,-4.06479645,10
15.04380226,-3.47006178,-4.00896358,11
15.19028854,-3.43964601,-3.87925148,8
14.69137573,-3.4738493,-3.95560765,12
14.87997818,-3.49954915,-3.97471213,14
15.08821678,-3.54411983,-4.03460979,8
15.22524452,-3.50173092,-3.87221456,8
14.73172188,-3.54549527,-3.97756362,13
14.93498611,-3.58964682,-4.04159451,13
15.12012863,-3.60489202,-4.0247426,11
14.79115105,-3.64715505,-4.07320023,16
14.9711628,-3.65765166,-4.04993582,14
15.14888573,-3.66138387,-4.00435543,11
14.82423782,-3.71248627,-4.07585859,12
15.00211906,-3.71980166,-4.04293108,11
15.18088722,-3.72487855,-4.00019741,9
14.84897041,-3.76792789,-4.05463171,10
15.0289669,-3.7790482,-4.02826738,13
15.2339077,-3.81836247,-4.06164265,11
14.89169693,-3.8522923,-4.09816551,8
15.08834076,-3.88245511,-4.1136117,10
15.26909447,-3.8881228,-4.06776142,10
14.91649437,-3.91095614,-4.07855463,9
15.11315536,-3.94211125,-4.09387875,12
14.9614048,-4.00160217,-4.1323719,10
15.15590096,-4.028337,-4.13617229,11
15.00850105,-4.09852982,-4.19647408,11
15.258461,-4.19839811,-4.35793257,11
15.04931259,-4.18801117,-4.24039888,9
15.26254272,-4.2388401,-4.28637314,10
15.10068893,-4.29477882,-4.31936169,7
15.2623539,-4.26956415,-4.20094633,10
15.12163734,-4.36019945,-4.30499887,10
15.15314674,-4.44203758,-4.32678986,11
15.23215485,-4.60160875,-4.50171709,7
15.24271584,-4.65593338,-4.4616251,12
15.19507599,-7.46017504,-4.81802273,10
15.16879272,-7.54702902,-4.85690165,6
15.14254951,-7.6343751,-4.89975262,8
13.0766983,-7.6150856,-4.75060129,5
13.25381851,-7.61567402,-4.76083946,7
13.01303101,-7.53416109,-4.70786095,4
13.1992321,-7.61265945,-4.81920004,7
13.37335014,-7.5751338,-4.78179073,7
12.94686127,-7.39603376,-4.59363079,10
13.13545799,-7.52640486,-4.77409744,6
13.31583405,-7.53573513,-4.79833555,10
13.51511574,-7.65639973,-4.95873594,5
12.89307594,-7.38495064,-4.64391518,13
13.07625198,-7.46076679,-4.75763369,10
13.2620163,-7.52179766,-4.84998131,12
13.43515015,-7.48528099,-4.81245708,17
13.63404846,-7.59157944,-4.95448637,7
12.83797646,-7.36112452,-4.68067455,7
13.01187134,-7.35010862,-4.68633747,8
13.18817711,-7.35541153,-4.7101078,14
13.38008881,-7.46033049,-4.85641098,7
13.57663727,-7.5526638,-4.98306322,7
13.76210403,-7.5678668,-5.00652075,8
12.77722168,-7.23690462,-4.58986187,9
12.96000099,-7.33390951,-4.73622942,10
13.13250732,-7.3084197,-4.72253513,7
13.32081604,-7.38985348,-4.84155369,8
13.5116539,-7.45414972,-4.93646812,6
13.70214653,-7.50693369,-5.01165104,9
12.71967316,-7.12006569,-4.51019478,12
12.89702988,-7.19980717,-4.63859987,7
13.07788658,-7.26202679,-4.73991823,12
13.26133347,-7.31033182,-4.81875086,7
13.44552422,-7.34982967,-4.8835516,8
13.63037109,-7.37779903,-4.92861128,6
12.66894913,-7.10805607,-4.56963062,7
12.84149742,-7.11960506,-4.61080265,10
13.02306747,-7.20758057,-4.74923134,13
13.2003231,-7.21063709,-4.77125502,4
13.38970757,-7.29378462,-4.8960948,10
13.58041573,-7.35325098,-4.98455524,7
12.61372948,-7.00245047,-4.50769234,16
12.79496956,-7.15051603,-4.7323947,6
12.97169495,-7.16906071,-4.78172874,8
13.15164185,-7.19672394,-4.83997536,7
13.33727455,-7.25131083,-4.92909193,5
13.5246315,-7.29682827,-5.00218487,8
12.56326675,-6.96119118,-4.53447485,13
12.73676491,-7.00704145,-4.62479448,11
12.90618515,-6.9765172,-4.61075115,7
13.09763336,-7.13346434,-4.84331846,7
13.27716064,-7.14627028,-4.87922668,10
13.4696331,-7.23209143,-5.00975084,7
12.51338768,-6.90431118,-4.54101563,7
12.68718719,-6.96031284,-4.64821529,13
12.85476494,-6.89847183,-4.59272194,9
13.03625488,-6.98223305,-4.72965813,9
13.22536659,-7.08965969,-4.89583063,15
13.41801071,-7.18080282,-5.03677845,14
12.46367836,-6.8162055,-4.50708628,10
12.63523674,-6.86282587,-4.60337734,12
12.80667877,-6.86906195,-4.6421957,7
12.99206924,-6.98484373,-4.82651854,9
13.17448235,-7.02869511,-4.9099431,11
13.36133957,-7.09007025,-5.0133214,7
12.58607101,-6.79353905,-4.59935665,14
12.75785446,-6.81203413,-4.65579891,9
12.93953896,-6.90061617,-4.8072505,15
13.12347794,-6.96302366,-4.91859245,7
13.30555534,-6.99548578,-4.9832778,8
12.54082298,-6.75726604,-4.64259815,11
12.71080017,-6.74568319,-4.65945482,14
12.8903141,-6.82735968,-4.80372238,9
13.07218742,-6.88657713,-4.91346502,8
13.26642227,-6.99626827,-5.09039068,8
12.49311256,-6.66751242,-4.61187601,13
12.66276741,-6.64391613,-4.61309433,8
12.84021759,-6.72240257,-4.75576162,11
13.02127647,-6.78795052,-4.87581205,11
13.20492935,-6.8395834,-4.97337627,9
12.45003319,-6.63652754,-4.66552448,7
12.61927223,-6.59732676,-4.64651012,9
12.79236603,-6.62608051,-4.72081518,9
12.97369003,-6.70054102,-4.85588217,9
13.14910507,-6.70721292,-4.89057589,8
12.40665436,-6.52155209,-4.60261488,8
12.57678795,-6.55084562,-4.68091393,8
12.74852562,-6.56636333,-4.73772478,14
12.9248085,-6.60225058,-4.82119131,8
13.10036087,-6.61300611,-4.86444664,9
12.53163147,-6.44345379,-4.63017988,9
12.70399475,-6.48038912,-4.72161722,10
12.88490486,-6.57417774,-4.89057064,8
13.05755997,-6.55214882,-4.88854218,7
12.49210739,-6.42974615,-4.71792889,11
12.66347313,-6.43102121,-4.7573657,10
12.83616638,-6.44516182,-4.81131506,9
13.01188278,-6.46036816,-4.86610985,7
12.45136261,-6.3719573,-4.74263191,9
12.6217823,-6.33980036,-4.73180246,6
12.79795074,-6.40516615,-4.8660326,9
12.97227287,-6.40664673,-4.89936447,8
12.581213,-6.25252342,-4.71380043,6
12.75941467,-6.35315752,-4.90510941,11
12.92968369,-6.31754017,-4.88261843,11
12.37519646,-6.1969533,-4.70361042,6
12.54368401,-6.20136786,-4.75175476,11
12.72137642,-6.28367424,-4.91712427,8
12.8777771,-6.11264229,-4.68683338,7
12.50731087,-6.12046242,-4.74501324,13
12.67784691,-6.1270752,-4.79487991,11
12.84047318,-6.03423023,-4.68382549,6
12.47011948,-6.01095676,-4.69446278,10
12.63949585,-6.01238585,-4.7349062,7
12.80740738,-5.99761343,-4.75016403,9
12.43760681,-5.99402761,-4.78959703,7
12.60276794,-5.91823101,-4.71066523,12
12.77345085,-5.93066549,-4.76686335,7
12.4051342,-5.94352913,-4.83346462,6
12.56875801,-5.81573677,-4.66828251,14
12.73756027,-5.83129406,-4.733181,8
12.37199974,-5.83544207,-4.78672695,10
12.53943825,-5.80357981,-4.77790689,7
12.70409775,-5.74600315,-4.72393274,10
12.50790405,-5.71577978,-4.7649188,8
12.67752075,-5.72500849,-4.81950855,7
12.47738075,-5.62970209,-4.74969101,12
12.64546013,-5.6202507,-4.77537203,12
12.45031357,-5.59137249,-4.81920481,11
12.42564583,-5.56600666,-4.91228056,13
12.37244797,-5.32126713,-4.76074743,9
12.53709793,-5.29688358,-4.76311827,11
12.51054192,-5.17705584,-4.68754101,7
12.48714447,-5.06237841,-4.62136889,15
12.42479134,-4.78039598,-4.52593374,8
12.40733337,-4.66649914,-4.4505372,10
12.38991165,-4.55383968,-4.37700081,14
12.37449455,-4.47371864,-4.36289883,11
12.35918427,-4.36561155,-4.29381609,14
12.32968903,-2.30321097,-3.66892433,8
12.339571,-2.23929811,-3.65860438,9
12.35036278,-2.17426229,-3.63934684,13
12.36212921,-2.1301012,-3.69911551,10
12.37432289,-2.09284234,-3.79833221,10
12.38679504,-2.02222395,-3.75052619,9
12.40028572,-1.95183492,-3.70469666,16
12.41553688,-1.91601205,-3.80773544,10
12.4302578,-1.85005045,-3.78149867,11
12.44632721,-1.79160762,-3.78354025,11
12.46229935,-1.73193526,-3.77565789,14
12.48149872,-1.69381666,-3.87692523,12
12.35919189,-1.62274492,-3.73580813,14
15.19769287,-1.66569662,-3.90247178,10
15.13381577,-1.67616594,-3.89778662,12
15.05031204,-1.67596602,-3.83718252,10
15.23474121,-1.71195257,-3.93869281,9
14.9739399,-1.67650461,-3.79152918,8
15.16466331,-1.71682882,-3.92065549,9
14.93177795,-1.69710195,-3.85490227,4
15.08117867,-1.71525896,-3.8652575,8
15.27382469,-1.75456691,-3.98642683,13
14.85021782,-1.69376957,-3.79365802,7
14.9975853,-1.71072102,-3.80216742,7
15.22860718,-1.77372861,-4.04597664,11
14.78105927,-1.69603038,-3.77089667,11
14.93052673,-1.7141788,-3.78931427,8
15.11923027,-1.75428951,-3.91647005,8
15.28603172,-1.77870464,-3.9631598,17
14.70872116,-1.69451082,-3.73351932,8
14.86867142,-1.72088385,-3.79515076,13
15.02430344,-1.7417717,-3.82828259,7
15.26565742,-1.81115985,-4.10042095,13
14.64260864,-1.69646823,-3.71681023,7
14.80156326,-1.72211111,-3.78055739,5
14.95104027,-1.74038291,-3.79996943,7
15.14491844,-1.78337169,-3.94283867,10
15.27967834,-1.78978634,-3.89735889,18
14.56400871,-1.68936396,-3.65801907,11
14.71576309,-1.71104574,-3.70519948,9
14.88088799,-1.74029756,-3.78254557,13
15.03443336,-1.75936484,-3.80887079,10
15.28510666,-1.83415723,-4.10946846,15
14.51033592,-1.69740617,-3.6837635,11
14.66532135,-1.72348309,-3.75052023,10
14.81485367,-1.74162292,-3.77699995,6
14.96438026,-1.76050901,-3.8013711,6
15.16547203,-1.80683589,-3.96390939,8
14.47031212,-1.71646094,-3.76745892,4
14.57730675,-1.70738304,-3.65867567,13
14.72698975,-1.72736704,-3.7000401,8
14.8921032,-1.75649595,-3.77639461,13
15.0456543,-1.77481675,-3.80482674,11
15.29014206,-1.8466239,-4.08872604,14
14.38950157,-1.70357585,-3.69429064,9
14.52261734,-1.71357989,-3.68566585,12
14.67130852,-1.73370326,-3.72803235,11
14.82712746,-1.75692725,-3.78001928,7
14.98072433,-1.77660942,-3.81130528,8
15.19528008,-1.8308661,-4.01504755,7
14.3222084,-1.69848907,-3.66939712,10
14.50971031,-1.75008452,-3.87273574,10
14.59160233,-1.72128499,-3.66688704,11
14.73814774,-1.73885012,-3.696491,8
14.90225792,-1.76712561,-3.7739675,12
15.05376816,-1.78498745,-3.79844713,11
14.24124718,-1.68214417,-3.58456826,10
14.39755249,-1.71213937,-3.68307257,10
14.52863121,-1.72093737,-3.67260122,12
14.67938805,-1.74263549,-3.71978927,12
14.8362236,-1.76521969,-3.77486753,7
14.99295807,-1.7865746,-3.82002425,8
14.16759872,-1.67036641,-3.52932906,11
14.33237648,-1.70849574,-3.67007136,10
14.51254654,-1.75366187,-3.84505558,10
14.60282516,-1.73114359,-3.67462134,11
14.74829865,-1.74699497,-3.6984024,8
14.91239166,-1.77427828,-3.77600265,11
14.12017632,-1.6797694,-3.58305573,11
14.25560951,-1.6936754,-3.60617089,11
14.40665627,-1.7189393,-3.68213844,8
14.53975487,-1.72795081,-3.6736362,12
14.68839645,-1.74584389,-3.71426392,12
14.84731102,-1.76937926,-3.77726436,8
14.07168388,-1.68671215,-3.63306808,8
14.17874718,-1.67687941,-3.53445578,10
14.3456192,-1.71533632,-3.68622088,11
14.52156258,-1.75612378,-3.84163618,10
14.61702156,-1.73660696,-3.68790913,10
14.75733566,-1.74895644,-3.69907522,6
14.00420952,-1.67618108,-3.59675908,8
14.12917519,-1.68123889,-3.57975984,11
14.26464844,-1.69563675,-3.6068449,11
14.41981316,-1.72231138,-3.69468784,8
14.55086899,-1.72999418,-3.68334842,13
14.69536591,-1.74536145,-3.71123004,11
13.93455505,-1.66185331,-3.54582715,9
14.07967567,-1.68732882,-3.63089561,8
14.18571663,-1.67639685,-3.5314219,10
14.35673332,-1.71737969,-3.69593239,11
14.52015114,-1.74786758,-3.80740476,10
14.6281414,-1.73628831,-3.70295262,9
13.8861866,-1.66952527,-3.60985446,7
14.01226234,-1.67591953,-3.60376382,8
14.13197899,-1.67636931,-3.56522036,11
14.27581215,-1.69667959,-3.62474251,11
14.43305016,-1.72343564,-3.72162366,8
14.55675125,-1.72444367,-3.67994666,12
13.83237076,-1.66851401,-3.63571358,8
13.94157982,-1.65962374,-3.553087,10
14.08559036,-1.68214715,-3.63047147,8
14.19371033,-1.67216623,-3.53891945,10
14.36675072,-1.71261621,-3.70750642,12
14.51762009,-1.73330498,-3.77094221,9
13.75412369,-1.64296091,-3.53385949,15
13.88986015,-1.65980935,-3.58885288,7
14.01915169,-1.66960633,-3.60246062,7
14.13781166,-1.66858816,-3.56007934,10
14.2857933,-1.69067788,-3.63445425,10
14.44725609,-1.72094345,-3.75201964,7
13.69606209,-1.6365788,-3.54027319,11
13.83932304,-1.66219211,-3.6424737,9
13.94955254,-1.65353155,-3.56182265,11
14.09038353,-1.67227471,-3.62459207,8
14.20266151,-1.66419625,-3.54888558,11
14.37360764,-1.70270288,-3.70967364,10
13.65084267,-1.64443064,-3.62238455,9
13.76529503,-1.63927925,-3.56241894,12
13.89253426,-1.64687836,-3.57430482,8
14.02919769,-1.66198051,-3.62346005,8
14.1425705,-1.65586185,-3.55556107,10
14.29683113,-1.68129706,-3.65767455,10
13.58740616,-1.63109493,-3.59646082,7
13.70299911,-1.62764883,-3.55037832,11
13.84511185,-1.64981866,-3.64092612,10
13.95632362,-1.64014935,-3.56038976,8
14.09614182,-1.65791667,-3.62329006,8
14.20736504,-1.64837027,-3.54374576,10
13.54332161,-1.63978267,-3.69357347,13
13.66627312,-1.64226532,-3.67993712,9
13.77324677,-1.6280942,-3.57883978,12
13.89938164,-1.63361061,-3.58192587,8
14.03700829,-1.64745831,-3.62921047,8
14.14933205,-1.63912547,-3.55958247,9
13.6007328,-1.62524748,-3.64844322,9
13.70873642,-1.61142898,-3.55031371,9
13.85296822,-1.63504207,-3.65275455,11
13.96419525,-1.6247493,-3.57531857,7
14.10180283,-1.63835132,-3.62061954,8
13.68051338,-1.63293278,-3.72831154,11
13.78636551,-1.61568701,-3.61853719,11
13.90923309,-1.61631644,-3.59807777,8
14.04477501,-1.62834358,-3.63855481,8
13.6084671,-1.60576367,-3.65481019,11
13.72076607,-1.5963155,-3.5843122,9
13.85857391,-1.61237657,-3.64946008,8
13.9782505,-1.60910296,-3.61339283,8
13.77921677,-1.57902455,-3.54958963,10
13.90534019,-1.5828023,-3.55490708,9
12.81762695,-1.6092726,-3.68348908,12
12.96072388,-1.61489069,-3.68135476,17
13.09918213,-1.60947323,-3.62218785,10
13.24551392,-1.6187396,-3.64173627,24
12.58004761,-1.67635989,-3.85391307,10
12.72014046,-1.66399837,-3.76334333,8
12.86654282,-1.67412567,-3.78983927,16
13.00712585,-1.67102051,-3.74144912,10
13.14430618,-1.66056049,-3.65772724,8
13.29606056,-1.67739522,-3.71457648,13
12.61818695,-1.71139407,-3.7998116,9
12.76226997,-1.71600366,-3.79779148,8
12.90029335,-1.70281386,-3.70029116,13
13.04203606,-1.7016598,-3.66777062,9
13.19059753,-1.71533775,-3.70690584,11
13.33447075,-1.71736491,-3.68404436,10
12.65433502,-1.74658394,-3.74671936,14
12.79848289,-1.75280046,-3.74953651,11
12.93893814,-1.74648118,-3.69146895,13
13.08738327,-1.75793695,-3.72080374,14
13.23353386,-1.76499057,-3.72248912,9
13.3719635,-1.75920403,-3.66034532,11
12.69032097,-1.7789371,-3.67886353,12
12.83710289,-1.79696798,-3.73662281,10
12.98097038,-1.79812622,-3.71487784,10
13.1170845,-1.78607559,-3.62632632,8
13.27099991,-1.80646062,-3.69581294,8
13.40717888,-1.79601717,-3.61209917,8
12.72680664,-1.82066917,-3.65417957,12
12.87706184,-1.84691548,-3.75421619,10
13.00820541,-1.81654024,-3.58232951,10
13.15460777,-1.82828331,-3.60560298,7
13.30415535,-1.84256864,-3.6416297,7
13.44038391,-1.83273959,-3.56287694,7
12.76457977,-1.86756682,-3.65504313,8
12.90995598,-1.87821078,-3.67745447,9
13.04489136,-1.86234736,-3.57427001,11
13.18342018,-1.85779047,-3.52205014,10
13.33411026,-1.87465,-3.5708456,8
13.48670769,-1.8911171,-3.60858703,9
12.80005455,-1.90919232,-3.62937427,9
12.94780159,-1.92758465,-3.68204045,8
13.08602524,-1.91685414,-3.60438848,7
13.2211647,-1.90431905,-3.51993561,8
13.37395477,-1.92399144,-3.57541585,9
13.51031876,-1.91663027,-3.50844836,14
12.83713722,-1.96314907,-3.65456176,10
12.99023819,-1.98824883,-3.73758221,10
13.1205349,-1.9597342,-3.58058929,11
13.27111626,-1.97524095,-3.61846924,9
13.40839577,-1.96601081,-3.54467082,9
13.55013275,-1.96560311,-3.51004195,8
12.87634277,-2.02016449,-3.68841887,7
13.01797104,-2.01678848,-3.64609742,11
13.16862679,-2.03402567,-3.68980861,10
13.29794693,-2.00502658,-3.53691673,9
13.43640518,-1.99960899,-3.47774887,9
13.58252335,-2.00704002,-3.47435164,8
12.90743256,-2.05469775,-3.62941289,6
13.05367088,-2.06360412,-3.63792229,12
13.19203949,-2.05546403,-3.5730474,9
13.33256721,-2.05087471,-3.52081084,10
13.46676254,-2.03983998,-3.44021297,9
13.61607933,-2.05129695,-3.45341372,7
12.94107246,-2.10080814,-3.61529899,9
13.07372284,-2.07743359,-3.49190784,8
13.22110939,-2.08978367,-3.51207161,8
13.37608147,-2.1148684,-3.57895184,10
13.49489403,-2.07491374,-3.38519931,8
13.6614666,-2.11291337,-3.50074744,9
12.96898079,-2.13230729,-3.53956938,10
13.10969353,-2.13080049,-3.50407934,9
13.2470665,-2.12193012,-3.4413197,16
13.40096664,-2.14617038,-3.50126195,8
13.53829575,-2.13755488,-3.43242407,7
13.68545914,-2.1463306,-3.43187308,6
13.00170517,-2.18028712,-3.5322876,7
13.13794518,-2.1689651,-3.4577508,10
13.28200722,-2.1749444,-3.45052266,8
13.41935539,-2.16657495,-3.38367105,7
13.57098198,-2.18504262,-3.42117453,9
13.7298584,-2.20970178,-3.47698116,10
13.0287571,-2.2143929,-3.4693439,7
13.17966652,-2.23880458,-3.53030157,9
13.32349014,-2.24021721,-3.50248051,14
13.44662285,-2.20574808,-3.33722711,9
13.60468674,-2.23437548,-3.40867567,8
13.76254272,-2.25880527,-3.46250844,9
13.060606,-2.26634884,-3.4696393,9
13.20237541,-2.26631021,-3.43798709,17
13.34418297,-2.26676321,-3.41030598,14
13.4979744,-2.28965068,-3.45933127,8
13.6288147,-2.2702601,-3.3515861,8
13.79200363,-2.30276704,-3.43056512,8
13.09126282,-2.3135004,-3.4554286,11
13.23422623,-2.31826639,-3.43828416,10
13.37596321,-2.31785846,-3.40365505,10
13.5362339,-2.35139775,-3.49059629,8
13.68645477,-2.36247802,-3.49275088,8
13.81296539,-2.33586431,-3.35873747,7
13.12329865,-2.37015486,-3.46924758,10
13.2694149,-2.37758589,-3.46584916,9
13.39902496,-2.35215259,-3.34173584,10
13.55062294,-2.37186694,-3.37303829,7
13.72244072,-2.41845322,-3.50157666,8
13.85754967,-2.40554929,-3.41414666,8
13.15419579,-2.42348862,-3.47240472,9
13.29025841,-2.40759158,-3.38533759,8
13.42770767,-2.40045166,-3.32840943,7
13.57928276,-2.41991997,-3.35772514,9
13.75429153,-2.47202516,-3.49864912,10
13.88720703,-2.45433259,-3.39672065,11
13.19072533,-2.49181962,-3.52403331,11
13.31571579,-2.4507494,-3.35454178,10
13.45742226,-2.44997239,-3.31693578,11
13.63931656,-2.52336359,-3.52468228,11
13.78505135,-2.52450681,-3.48679852,10
13.94146347,-2.54105735,-3.50131369,15
13.20837212,-2.51705265,-3.42902994,9
13.36324883,-2.54339266,-3.48164678,15
13.48294067,-2.4954834,-3.28887057,9
13.66481781,-2.5694983,-3.49351859,16
13.79652214,-2.54600835,-3.3772037,12
13.9743557,-2.5967207,-3.49912477,19
13.23725319,-2.5710423,-3.42910385,11
13.3833065,-2.57848167,-3.41764259,14
13.52489471,-2.57461405,-3.37135339,9
13.68922424,-2.61367297,-3.45454597,12
13.83285332,-2.61188006,-3.40898442,10
14.03188705,-2.69243312,-3.61970353,8
13.27734375,-2.65428853,-3.52016354,9
13.40888977,-2.62559986,-3.394418,9
13.57553864,-2.67179227,-3.50290322,12
13.71266174,-2.65823293,-3.41855812,7
13.8841362,-2.70138478,-3.51125002,11
14.05103683,-2.73187661,-3.55819249,22
13.29964066,-2.69552708,-3.47351432,16
13.44560814,-2.7011137,-3.45522976,11
13.62300301,-2.76680636,-3.6166153,10
13.7652092,-2.75501871,-3.5390532,9
13.92255592,-2.77156186,-3.54549789,8
14.08193779,-2.78931093,-3.5537889,18
13.3221035,-2.74121857,-3.43840384,19
13.47238541,-2.75465274,-3.44328904,9
13.64429474,-2.80880785,-3.56786609,11
13.79845619,-2.82070184,-3.560812,10
13.98251343,-2.87973809,-3.69373178,12
14.12994576,-2.87467504,-3.63039899,18
13.35792923,-2.82046342,-3.50480866,15
13.52017975,-2.85857105,-3.58007884,15
13.68744469,-2.8975904,-3.65518737,13
13.85221481,-2.92490053,-3.69246936,18
14.01143646,-2.93906665,-3.68810415,10
14.19286919,-2.98479557,-3.77029848,12
13.42045784,-2.96893144,-3.76693201,10
13.56793022,-2.96274424,-3.7107923,10
13.70787239,-2.94369149,-3.61500716,11
13.88659096,-2.99539733,-3.72067285,11
14.03185844,-2.98591423,-3.6458168,10
14.24625206,-3.0819602,-3.86957717,14
13.43874168,-3.01085877,-3.71721554,13
13.60154152,-3.03857064,-3.75749135,13
13.75977135,-3.05287576,-3.75412726,9
13.93291092,-3.09106803,-3.8151691,14
14.11324883,-3.13483763,-3.88955665,19
14.2783699,-3.14767694,-3.87521982,14
13.46474266,-3.07121992,-3.7195518,9
13.62859344,-3.10114527,-3.76155686,13
13.79003334,-3.12121534,-3.77256274,8
13.97057724,-3.16992879,-3.86245751,13
14.12628365,-3.17215657,-3.81829286,12
14.29784775,-3.19764018,-3.8335638,17
13.49852943,-3.15323615,-3.77555656,11
13.65242195,-3.15857911,-3.74815512,12
13.82795525,-3.20725083,-3.83709812,12
14.00196838,-3.24308228,-3.88733983,14
14.16820526,-3.25974274,-3.87957335,9
14.34283829,-3.28765416,-3.89854312,14
13.53133202,-3.23626184,-3.8314476,17
13.68511391,-3.23863626,-3.7963531,6
13.87130165,-3.30570126,-3.92926478,10
14.02685165,-3.30359912,-3.87455368,20
14.21553421,-3.3587513,-3.9686079,13
14.39749336,-3.3962009,-4.00849152,14
13.56752396,-3.33049655,-3.91312408,11
13.74627304,-3.38580275,-4.01531982,13
13.89303017,-3.36193776,-3.90595484,13
14.0593605,-3.38057399,-3.90600514,9
14.24478722,-3.43021631,-3.97961283,11
14.43086624,-3.47069144,-4.0281496,12
13.58614731,-3.38306737,-3.88425398,9
13.75613403,-3.41859484,-3.93155169,10
13.90850449,-3.41109705,-3.86544633,12
14.08124352,-3.44113994,-3.89324164,12
14.26874161,-3.49322605,-3.97055721,6
14.44632912,-3.52134347,-3.98342633,13
13.61699486,-3.46910214,-3.93979239,7
13.80962944,-3.55042744,-4.09908676,10
13.9703331,-3.55257392,-4.05488062,6
14.1621151,-3.61213875,-4.15238857,14
14.30337334,-3.57574415,-4.00633764,9
14.48199844,-3.6050837,-4.02106047,14
13.65563202,-3.57766199,-4.04788351,10
13.807724,-3.56187439,-3.96366453,19
13.98481178,-3.60261846,-4.01326609,10
14.18520546,-3.68086362,-4.14868021,17
14.354105,-3.68931699,-4.11570263,8
14.49544907,-3.65639138,-3.97325277,21
13.67116737,-3.62917447,-4.01010656,10
13.82654762,-3.62175107,-3.9449718,13
14.03170013,-3.72058582,-4.13320827,15
14.21363258,-3.75853515,-4.16900206,7
14.39103699,-3.78195453,-4.16834641,10
14.54393387,-3.7645607,-4.06315565,10
13.71322823,-3.75179815,-4.14262199,10
13.87926483,-3.76276803,-4.12145376,6
14.05171967,-3.78688312,-4.12580109,12
14.24756622,-3.85122132,-4.22166777,15
14.40671158,-3.8400352,-4.13479185,8
14.5818615,-3.85792851,-4.11368227,10
13.74653816,-3.85476613,-4.2212286,7
13.91242409,-3.86227632,-4.18839884,8
14.09656715,-3.90600657,-4.23856831,12
14.25899696,-3.90231538,-4.17189026,15
14.42351532,-3.9013145,-4.11090612,10
14.62418365,-3.96335816,-4.18887186,18
13.74913406,-3.88037419,-4.11927509,11
13.93368721,-3.9356091,-4.19723701,9
14.14583397,-4.03830719,-4.37686682,10
14.29191399,-3.99564147,-4.22146702,14
14.44675636,-3.97511554,-4.1156373,9
14.65267754,-4.0458684,-4.20758486,11
13.77829361,-3.97994733,-4.18625259,15
13.97018623,-4.04571152,-4.285007,11
14.1616993,-4.10195589,-4.35572052,11
14.33034325,-4.10485077,-4.3022728,13
14.49571419,-4.10037327,-4.2296176,9
14.69611549,-4.15673494,-4.28611851,15
13.81069756,-4.08813858,-4.26623678,13
13.99600029,-4.13705158,-4.32582855,15
14.19278717,-4.20225143,-4.41251135,10
14.34415817,-4.16791725,-4.27618074,15
14.53190613,-4.20430231,-4.29195452,10
14.74174881,-4.27400637,-4.37593031,8
13.82135391,-4.14443922,-4.23396206,12
14.00446701,-4.1894331,-4.27793884,13
14.21635818,-4.28818846,-4.4338727,10
14.37517357,-4.26648235,-4.32714081,18
14.57561111,-4.32408237,-4.38550377,12
14.72697639,-4.29049349,-4.24706697,7
13.87488174,-4.31641912,-4.44892454,14
14.05103493,-4.3335495,-4.42991495,14
14.26053238,-4.42182636,-4.55794764,15
14.42125702,-4.39736509,-4.44549274,12
14.59811592,-4.40842819,-4.40203619,11
14.78757858,-4.43885374,-4.39434528,8
13.89771271,-4.4104166,-4.48642445,14
14.07277489,-4.42484093,-4.46171618,9
14.26054382,-4.46147156,-4.47947407,14
14.42992401,-4.45705223,-4.40777874,9
14.63021469,-4.5120616,-4.45336437,20
14.81325531,-4.53008842,-4.41805172,8
13.92616081,-4.52326536,-4.56284904,14
14.08910179,-4.50383949,-4.46687889,9
14.27361488,-4.53334427,-4.46741343,12
14.48900604,-4.62104034,-4.5833683,10
14.64747047,-4.59018373,-4.4515729,12
14.838974,-4.622684,-4.4446125,6
13.94048882,-4.60229683,-4.56802845,13
14.13044739,-4.64446259,-4.59817791,10
14.28242111,-4.59636879,-4.44037008,15
14.50971794,-4.71359444,-4.60897589,12
14.65847778,-4.66048145,-4.43469143,11
14.91151619,-4.80342674,-4.6431818,6
13.95385933,-4.68270493,-4.57606983,10
14.12751389,-4.68564177,-4.52357483,11
14.30542183,-4.69730377,-4.48507118,14
14.51436424,-4.77310085,-4.56931019,9
14.71326065,-4.81761503,-4.5869875,10
14.92788696,-4.8870182,-4.6447525,7
13.97275734,-4.7799902,-4.61521769,11
14.16915894,-4.83803272,-4.66852903,12
14.34464645,-4.83648396,-4.60447836,12
14.54800415,-4.89466763,-4.65165567,8
14.76277733,-4.96827698,-4.71897554,12
14.95071411,-4.98499298,-4.6736989,7
13.99728394,-4.8978653,-4.69105911,10
14.20438957,-4.97814751,-4.78685284,16
14.42175674,-5.06792688,-4.89547396,9
14.59468079,-5.05057764,-4.79310083,10
14.81135559,-5.12217903,-4.85258865,10
14.96613503,-5.07083082,-4.67701674,7
14.01749611,-5.00627756,-4.74695444,13
14.20489311,-5.03351212,-4.73766518,15
14.42232513,-5.12651443,-4.84790087,12
14.6210022,-5.16509199,-4.85019398,10
14.83546257,-5.23004246,-4.89642048,13
14.97431755,-5.14898396,-4.6662426,9
14.05114365,-5.16202974,-4.88552618,19
14.2240715,-5.14231777,-4.78848267,9
14.44568062,-5.24231577,-4.90687943,13
14.64102936,-5.2704215,-4.88934135,8
14.83414078,-5.29324722,-4.85333204,9
15.00687408,-5.27194548,-4.73532629,10
14.07713509,-5.29772377,-4.98333073,17
14.24884796,-5.27134609,-4.87301731,15
14.45305061,-5.32679939,-4.90641594,8
14.65585709,-5.37014103,-4.91512871,6
14.84563446,-5.38162613,-4.86040401,8
15.04599571,-5.41387463,-4.83625555,8
14.07571793,-5.355721,-4.93887377,12
14.28337097,-5.42473698,-5.00078773,8
14.44632912,-5.37547207,-4.84301329,8
14.68149948,-5.49668503,-4.98786926,9
14.85726166,-5.47570419,-4.87281609,10
15.08414268,-5.55855083,-4.9348402,7
14.07019234,-5.41081381,-4.8867569,9
14.27684975,-5.48071623,-4.94756317,8
14.47764587,-5.52396679,-4.95530033,8
14.67285347,-5.54873657,-4.9270916,10
14.88391495,-5.60397005,-4.94331741,6
15.05759239,-5.58116817,-4.82145596,7
14.0933609,-5.55436325,-4.99066687,11
14.30634308,-5.63543463,-5.06917334,10
14.48200989,-5.60924625,-4.95275211,13
14.68368149,-5.65013742,-4.94968748,8
14.88825798,-5.68900347,-4.9387846,15
15.07357025,-5.6875639,-4.85245275,9
14.0781002,-5.58521605,-4.89630604,7
14.29666138,-5.68626356,-5.00654316,9
14.50598526,-5.74795866,-5.04214096,8
14.70099068,-5.76703691,-5.00053072,11
14.90126228,-5.79656315,-4.97067308,7
15.12269783,-5.86674786,-5.0030818,5
14.07835388,-5.66597605,-4.8893199,8
14.31222153,-5.8111167,-5.07253981,8
14.49221992,-5.79538345,-4.97593975,11
14.72063446,-5.89529371,-5.07009649,8
14.90471268,-5.88532639,-4.97173357,7
15.11871338,-5.94139004,-4.97875834,10
14.08979416,-5.78618717,-4.94988728,7
14.30388069,-5.87257242,-5.03074741,5
14.49585724,-5.88971424,-4.98940849,9
14.72323036,-5.98989534,-5.0774951,7
14.89866638,-5.9576478,-4.94469404,9
15.13079262,-6.05231047,-5.01326227,10
14.08271408,-5.85567093,-4.92421913,6
14.29355049,-5.93418455,-4.98996401,6
14.49414253,-5.97249126,-4.98219299,10
14.73233795,-6.10123444,-5.11500072,6
14.9377346,-6.13625479,-5.08944893,7
15.13335228,-6.14567471,-5.01879835,6
14.10219002,-6.01192188,-5.04070377,9
14.32492638,-6.1223259,-5.15376854,8
14.50565147,-6.09679413,-5.04325867,13
14.72428894,-6.17271852,-5.08909273,6
14.9318409,-6.21365261,-5.07084942,6
15.1402626,-6.25135612,-5.04292011,6
14.09865379,-6.10017586,-5.04491901,9
14.30485153,-6.15795898,-5.07297087,8
14.52271271,-6.24070454,-5.13308096,9
14.72822952,-6.2788167,-5.11621571,7
14.94003677,-6.32847595,-5.11196327,5
14.07744789,-6.1309948,-4.95767403,12
14.30914688,-6.27569246,-5.12081671,10
14.51714325,-6.32936859,-5.13222933,7
14.74094963,-6.41214848,-5.18522072,9
14.92366791,-6.38969278,-5.06725788,6
14.07099533,-6.22189617,-4.96663046,7
14.2927227,-6.3338089,-5.07548857,8
14.48877525,-6.35423231,-5.03672409,6
14.73009109,-6.49086475,-5.16852427,10
14.91814232,-6.47971773,-5.06925917,11
14.06228447,-6.30403948,-4.96157837,8
14.26103783,-6.34757853,-4.96325493,8
14.49761009,-6.49146652,-5.11234093,8
14.71500778,-6.56122494,-5.14081049,9
14.9170742,-6.58577442,-5.0954299,6
15.13505363,-6.64475822,-5.09399033,6
14.05051613,-6.38387918,-4.95382071,11
14.26130867,-6.46426249,-5.01026392,8
14.47275162,-6.53386354,-5.04486084,10
14.72166252,-6.69304705,-5.20502663,5
14.90536499,-6.66958237,-5.08717775,7
15.10838509,-6.69436979,-5.03571224,12
14.03334236,-6.44993305,-4.92363834,8
14.22654533,-6.47386551,-4.89656258,7
14.45567322,-6.60350895,-5.01927137,11
14.70468521,-6.76715422,-5.18291569,7
14.88723183,-6.73776054,-5.05775261,8
15.08604431,-6.75518417,-4.99514771,5
14.03077507,-6.57186413,-4.98010349,10
14.23056793,-6.61749506,-4.98251772,6
14.45615005,-6.72836781,-5.07534313,7
14.70083809,-6.88081121,-5.22127342,5
14.90807343,-6.91221619,-5.18305016,4
15.06701469,-6.82709265,-4.97131348,4
14.01390266,-6.64807034,-4.96680021,6
14.21029282,-6.67913723,-4.94888496,8
14.43397713,-6.79450321,-5.0452013,8
14.66561508,-6.90999508,-5.13537884,9
14.87516594,-6.95251131,-5.11389637,6
15.07057762,-6.95537186,-5.03096008,6
13.98940277,-6.70135593,-4.92215252,9
14.19371223,-6.76537085,-4.95146418,9
14.42715836,-6.90857792,-5.08655977,10
14.64682579,-6.98970175,-5.12569141,7
14.87150764,-7.07335281,-5.16143847,5
15.05827522,-7.05306244,-5.04518032,4
13.98408699,-6.83287191,-4.99055719,11
14.17270279,-6.83594227,-4.93285561,7
14.42269707,-7.03587198,-5.14540386,8
14.62484932,-7.06227398,-5.10684443,10
14.84427643,-7.13721609,-5.12860727,6
15.05038261,-7.16542339,-5.08071518,4
13.98124123,-6.98144484,-5.08302402,11
14.1474247,-6.89679623,-4.90037823,7
14.39643478,-7.09773397,-5.11280918,7
14.62160301,-7.1978507,-5.17573261,5
14.80077362,-7.15339327,-5.03433132,10
15.01243401,-7.20207691,-5.01407814,6
13.94147491,-6.9878974,-4.9758091,11
14.14118767,-7.03092813,-4.97350693,10
14.39790344,-7.25900078,-5.2187748,6
14.6054554,-7.29993486,-5.20053196,4
14.79532623,-7.28169489,-5.09305763,8
14.99505234,-7.29563379,-5.02684593,7
13.94249535,-7.16886854,-5.1105752,8
14.1385746,-7.18879128,-5.07590437,5
14.38192368,-7.36715412,-5.25189018,4
14.58935928,-7.40425062,-5.22706699,5
14.7760601,-7.37912178,-5.11241913,10
14.97038651,-7.37852907,-5.0258913,8
13.90429306,-7.195117,-5.0331378,14
14.1105957,-7.25984526,-5.06032848,8
14.33963013,-7.39074469,-5.16877651,4
14.53955078,-7.40788841,-5.12030268,8
14.76440811,-7.49934626,-5.16213274,9
14.9381237,-7.43887329,-4.99657059,8
13.89117813,-7.3340683,-5.11178541,8
14.10739708,-7.43332958,-5.18296576,4
14.30633354,-7.44986677,-5.1376009,7
14.49538803,-7.43472481,-5.04688311,8
14.69424057,-7.45102453,-4.99147177,8
14.89303589,-7.46745586,-4.92898941,4
13.85536575,-7.3731575,-5.05691719,11
14.06728935,-7.461586,-5.11336184,5
14.26644516,-7.48567438,-5.08015633,10
14.48522758,-7.57226801,-5.1226511,5
14.67631721,-7.55994797,-5.03055573,4
14.87186432,-7.56689167,-4.95618296,3
13.82218742,-7.43537045,-5.03442574,10
14.0364666,-7.53701782,-5.10835457,7
14.23778915,-7.56714201,-5.08345175,4
14.44780159,-7.62500858,-5.08827686,5
14.64005661,-7.61874104,-5.00448895,6
13.77426338,-7.43190718,-4.92751312,13
14.00225067,-7.59713888,-5.08512688,8
14.19258499,-7.59027243,-5.0125165,8
13.7541008,-7.56874275,-5.00447845,8
13.71916008,-7.63791704,-4.99726772,7
15.25850677,-2.69393349,-3.6686511,10
15.17572403,-2.67337108,-3.61459327,11
15.12307739,-2.67928076,-3.64764428,7
15.27349472,-2.70002961,-3.65464473,10
15.05270386,-2.66679668,-3.62772989,14
15.1928215,-2.68078756,-3.61148739,12
14.98334885,-2.65454197,-3.60979176,18
15.13391685,-2.67875051,-3.62845492,9
15.27295494,-2.69015861,-3.60750389,10
14.95461273,-2.68021512,-3.71573114,12
15.07601357,-2.67595148,-3.64752245,11
15.2161293,-2.68907309,-3.63239622,11
14.86016655,-2.64115286,-3.61671877,12
14.99939156,-2.65564322,-3.61251688,19
15.14682388,-2.67581773,-3.62264204,10
14.74996948,-2.58416438,-3.46063495,10
14.95500183,-2.6646204,-3.67130542,13
15.0951519,-2.67736483,-3.66126227,9
15.24042511,-2.69398808,-3.6587503,11
14.71286392,-2.59895563,-3.54281354,13
14.89495087,-2.65677786,-3.68195057,12
15.01536751,-2.65190673,-3.61685061,20
15.15864563,-2.6678164,-3.61646152,9
14.66215706,-2.59924793,-3.57956529,18
14.76495552,-2.57895088,-3.46919107,10
14.9595108,-2.64720464,-3.64520168,12
15.11218834,-2.67273355,-3.67476583,8
15.25951958,-2.69006252,-3.67819071,9
14.59887505,-2.58539462,-3.57385588,13
14.72780991,-2.59163475,-3.55062437,12
14.93810272,-2.67682219,-3.78383398,11
15.03238869,-2.64466739,-3.63369823,16
15.17358208,-2.65875673,-3.62650299,9
14.49673462,-2.52739835,-3.42688465,7
14.70118141,-2.61539674,-3.67391014,16
14.79244423,-2.58217573,-3.52293158,10
14.9744072,-2.63603735,-3.65449667,20
15.12708855,-2.66081977,-3.68616843,8
15.27541542,-2.67726326,-3.69070077,9
14.44174767,-2.51946616,-3.4455502,7
14.60856056,-2.56849527,-3.56879854,9
14.75737381,-2.59494138,-3.61340237,11
14.95607376,-2.6657207,-3.80215812,13
15.0483036,-2.63211441,-3.64819407,15
15.19049263,-2.64531827,-3.64210582,6
14.41515923,-2.54372001,-3.57280588,10
14.5075016,-2.5114665,-3.42975736,8
14.71710396,-2.60209727,-3.69051385,16
14.85845184,-2.61728406,-3.70030975,17
14.98405266,-2.61541462,-3.65191627,19
15.15124702,-2.65195727,-3.72330141,7
14.33174133,-2.50161672,-3.48312926,18
14.44934464,-2.49826097,-3.43802524,8
14.59412575,-2.52278733,-3.48290706,7
14.74711227,-2.55212784,-3.54323268,15
14.95004082,-2.62728596,-3.75155902,13
15.0672245,-2.61553502,-3.67122102,11
14.2978096,-2.51608706,-3.58748507,17
14.4058342,-2.49928355,-3.4977901,10
14.52022171,-2.49090958,-3.43620658,7
14.67333221,-2.52259469,-3.50732589,8
14.84399605,-2.56809902,-3.61887956,11
15.00716591,-2.60197592,-3.69265056,20
14.2121067,-2.46647263,-3.47760272,8
14.34238815,-2.47774625,-3.48698759,15
14.46101761,-2.4747436,-3.44485164,7
14.59737778,-2.48851895,-3.45890427,7
14.74622345,-2.5145874,-3.50859284,9
14.94286919,-2.58229923,-3.69674253,9
14.11468697,-2.40010571,-3.31247377,8
14.30633163,-2.48828864,-3.58379126,12
14.42379761,-2.48084998,-3.53012419,11
14.53919601,-2.47258234,-3.4695251,6
14.67449951,-2.48489046,-3.47974086,8
14.85038185,-2.53463435,-3.60986257,10
14.06694794,-2.3951335,-3.35589266,9
14.2058506,-2.4196167,-3.41595531,9
14.33822441,-2.43283415,-3.43314052,12
14.47995186,-2.45430899,-3.47742319,6
14.60689354,-2.45821953,-3.45954061,11
14.75777435,-2.4838779,-3.51429677,11
14.02451134,-2.39625406,-3.42470455,12
14.12636566,-2.37422609,-3.32463288,12
14.28628159,-2.42136693,-3.46430683,11
14.42378807,-2.43697071,-3.49323726,10
14.58010483,-2.47193575,-3.58306456,9
14.69021225,-2.45695257,-3.50017476,9
13.96401405,-2.37243795,-3.41214156,10
14.07539558,-2.36162734,-3.35492134,11
14.22161865,-2.3931632,-3.44023681,9
14.34450912,-2.39490819,-3.42064643,15
14.51137352,-2.4413209,-3.55530262,12
14.62046814,-2.42536139,-3.47254419,10
13.88207626,-2.31582999,-3.28696275,9
14.02867699,-2.35526919,-3.40354061,10
14.1368351,-2.33931756,-3.32885218,11
14.27669334,-2.3624239,-3.38605261,9
14.43528366,-2.40154576,-3.50154114,13
14.57478142,-2.41699386,-3.52946281,8
13.83001137,-2.30127168,-3.30944443,8
13.95957565,-2.31687331,-3.34550834,7
14.09429932,-2.33597708,-3.39418626,9
14.21089745,-2.33015275,-3.35342765,9
14.36012268,-2.36089373,-3.44082546,16
14.51440239,-2.39303732,-3.53203034,6
13.79284477,-2.30563092,-3.40500903,9
13.89364433,-2.28213477,-3.30109835,9
14.03160667,-2.30575657,-3.37034607,10
14.17146492,-2.32724714,-3.43077064,8
14.28385353,-2.31728959,-3.37242603,8
14.45185089,-2.36453819,-3.52208328,9
13.7449646,-2.29409051,-3.44420552,10
13.84567451,-2.2678721,-3.33458638,10
13.975214,-2.28235888,-3.36978221,11
14.11305618,-2.30288935,-3.43034339,11
14.22014046,-2.28522348,-3.34983253,9
14.3955822,-2.34186959,-3.5355351,10
13.67025566,-2.24181223,-3.33857131,10
13.83524895,-2.3086307,-3.5724957,13
13.92410851,-2.26406121,-3.39473057,11
14.05350876,-2.27521062,-3.41925693,17
14.17853355,-2.27777505,-3.41465783,7
14.3004055,-2.27767444,-3.3963151,6
13.62018013,-2.22548294,-3.36326718,8
13.75527763,-2.25000572,-3.44754744,9
13.8633461,-2.23133159,-3.36715174,8
13.99604988,-2.24860597,-3.41708422,13
14.12534904,-2.25691056,-3.43490958,9
14.24186516,-2.248487,-3.38943624,6
13.57445526,-2.21500826,-3.41944122,12
13.69013596,-2.20943713,-3.38873696,8
13.80367851,-2.20056152,-3.34737873,8
13.95126534,-2.23576164,-3.47051835,12
14.07737923,-2.23941612,-3.47484303,8
14.19179153,-2.22892618,-3.42057776,7
13.51893616,-2.18763375,-3.41129923,10
13.66156769,-2.22265959,-3.54055619,19
13.76638031,-2.19847512,-3.43971276,9
13.87025833,-2.17591453,-3.34371805,8
14.01455688,-2.20436573,-3.44454932,7
14.15332985,-2.22240376,-3.50138116,11
13.47857475,-2.18398857,-3.49881792,9
13.58877754,-2.16775012,-3.43019128,8
13.71090698,-2.17084622,-3.4376483,6
13.81900406,-2.15254116,-3.36022854,9
13.96976471,-2.19065189,-3.49910021,9
14.09579849,-2.1917069,-3.4987092,7
13.42961884,-2.16750312,-3.53863788,10
13.53540611,-2.14218712,-3.43691754,8
13.66400719,-2.15419626,-3.48452067,9
13.77207565,-2.13552284,-3.40412498,7
13.89723396,-2.1389389,-3.41453576,10
14.02978706,-2.15113759,-3.45602965,7
13.36418152,-2.11926842,-3.45861125,7
13.48851585,-2.12566066,-3.48478389,9
13.61275673,-2.13007712,-3.50314045,13
13.71759033,-2.10613823,-3.40428281,11
13.85554695,-2.12565947,-3.48109269,10
13.97215271,-2.1183424,-3.44455004,9
13.32051659,-2.10788298,-3.52394557,11
13.44701576,-2.11707926,-3.56486464,12
13.53763008,-2.06704116,-3.36760592,7
13.67696762,-2.09445,-3.47567105,8
13.79568291,-2.08845305,-3.45002794,8
13.91658974,-2.08637547,-3.43999958,15
13.2658329,-2.07442379,-3.50747871,10
13.38807678,-2.07812619,-3.5279603,10
13.48838997,-2.04301238,-3.38720155,10
13.6212883,-2.06026077,-3.46132088,7
13.74326897,-2.05989718,-3.45711493,14
13.87695694,-2.07293153,-3.51361012,9
13.22224998,-2.06327558,-3.58285928,8
13.33441162,-2.04489732,-3.51347136,10
13.44677353,-2.0305934,-3.46070576,9
13.55911446,-2.01604366,-3.4059546,6
13.69617271,-2.03681064,-3.492697,7
13.82658577,-2.04408908,-3.52676105,6
13.16749573,-2.02734065,-3.56267095,8
13.28305626,-2.0170629,-3.52650571,9
13.39855194,-2.00517821,-3.48550177,11
13.5260067,-2.01299739,-3.52355909,10
13.63827896,-1.99758673,-3.46186137,11
13.76769638,-2.00413513,-3.49804091,11
13.11602592,-1.99728441,-3.56590581,6
13.24920845,-2.01884508,-3.66669393,10
13.36571312,-2.0070672,-3.62667441,9
13.47337723,-1.97937465,-3.51414609,7
13.59214783,-1.97324562,-3.49557209,8
13.72052193,-1.97844934,-3.52890587,8
13.06671906,-1.97003245,-3.58388591,8
13.19226837,-1.9782443,-3.63299775,9
13.30322075,-1.95568395,-3.54600024,9
13.43170929,-1.96310949,-3.58913422,11
13.53959084,-1.93973708,-3.49521327,10
13.671175,-1.94908977,-3.54613924,7
13.03468513,-1.98585868,-3.79688525,12
13.13504028,-1.93246198,-3.57374644,8
13.25490952,-1.9275465,-3.56508756,9
13.37578964,-1.92273808,-3.55741429,8
13.49442101,-1.91327238,-3.52817035,14
13.62496758,-1.92140293,-3.57724261,8
12.97607613,-1.93218875,-3.70637751,9
13.0889225,-1.90749764,-3.61055756,8
13.19870567,-1.88124752,-3.50992036,9
13.32519913,-1.88795877,-3.5551784,8
13.46242142,-1.90833092,-3.66312861,10
13.56903458,-1.88003945,-3.54564595,9
12.92104149,-1.88957953,-3.66485023,9
13.03496742,-1.86585522,-3.57695794,11
13.1526432,-1.85615134,-3.55379987,7
13.28239632,-1.86762667,-3.62161279,10
13.4206028,-1.88699031,-3.72967887,10
13.53579903,-1.86980104,-3.6621263,8
12.87622833,-1.86915684,-3.73030806,10
12.9887619,-1.83816886,-3.60806203,10
13.11203194,-1.83973861,-3.63585019,10
13.23053169,-1.82705879,-3.59692883,8
13.35468102,-1.82713723,-3.61280274,11
13.46891212,-1.80958676,-3.55034304,9
12.82893944,-1.83963323,-3.75459552,11
12.94615364,-1.82104182,-3.69223499,10
13.0579071,-1.79439092,-3.58860636,9
13.18315506,-1.79568243,-3.61439371,7
13.30831909,-1.79512119,-3.63335967,10
13.42580032,-1.78221178,-3.59246159,7
12.77318954,-1.78257751,-3.65339422,13
12.89528847,-1.78045797,-3.66754603,15
13.01833725,-1.7777071,-3.67672467,15
13.13459969,-1.7604934,-3.61722732,8
13.27414513,-1.78402114,-3.75902414,8
13.38919067,-1.76337194,-3.67981052,10
12.72584343,-1.75157011,-3.67383647,11
12.84778214,-1.74586737,-3.67533088,10
12.97203636,-1.74642885,-3.70323515,12
13.09825516,-1.74571967,-3.7292614,9
13.22666359,-1.74892998,-3.77090311,10
13.34166908,-1.72778904,-3.68771982,8
12.68331528,-1.73381138,-3.76917219,12
12.80625343,-1.72809243,-3.77065873,9
12.92450333,-1.71072304,-3.71015334,15
13.04279518,-1.69384539,-3.65361619,9
13.16910934,-1.69511235,-3.68745828,11
13.29737663,-1.69498539,-3.71842933,12
12.63718224,-1.70462298,-3.81255198,11
12.7575531,-1.68869686,-3.76393819,9
12.88150215,-1.68308473,-3.7664113,12
13.00320625,-1.67368448,-3.74619722,11
13.11467361,-1.6427213,-3.61589646,9
13.25086021,-1.65863991,-3.72843957,19
12.59101486,-1.67419672,-3.85407019,11
12.71104622,-1.65247416,-3.77493954,11
12.83255577,-1.63986874,-3.73698688,11
12.95197678,-1.62457335,-3.69334316,20
13.06806183,-1.60439992,-3.61809039,10
13.19758987,-1.60906935,-3.67163301,13
12.83114815,-1.62117207,-3.72420359,14
12.96888351,-1.623191,-3.68427515,18
12.44202423,-1.67562211,-3.85539269,14
12.58316612,-1.6842494,-3.8529036,10
12.72166252,-1.68168569,-3.79237485,7
12.86388397,-1.69128036,-3.79781747,14
13.00388336,-1.69733322,-3.78255963,10
12.46642113,-1.7229054,-3.80898094,12
12.60631561,-1.72685921,-3.78491497,9
12.74764442,-1.7385689,-3.79917264,9
12.88155937,-1.72570729,-3.68756628,13
13.02050781,-1.73116159,-3.6673553,15
12.35018158,-1.75303507,-3.72076297,11
12.49009895,-1.77526307,-3.78713989,12
12.62982941,-1.77638054,-3.74831128,8
12.76618385,-1.77051198,-3.67712903,12
12.90645027,-1.78150034,-3.68544173,15
13.041996,-1.77959991,-3.62989736,14
12.37314415,-1.80972123,-3.72559953,11
12.51680183,-1.84584665,-3.85571957,10
12.66026306,-1.85999179,-3.88174701,11
12.79011536,-1.82681298,-3.67898107,9
12.93141937,-1.83902335,-3.68914819,9
13.06237984,-1.82595587,-3.58364177,11
12.39772987,-1.89688969,-3.87074542,8
12.54154778,-1.91782331,-3.92716837,11
12.67665291,-1.88850713,-3.74805641,8
12.81778717,-1.89701152,-3.74457574,9
12.95407104,-1.89028215,-3.6664443,9
13.09184456,-1.89279318,-3.63048792,10
12.41853523,-1.93286633,-3.77337074,9
12.55973816,-1.94223142,-3.77683592,9
12.69294167,-1.91417718,-3.60766459,11
12.83582115,-1.93748021,-3.66682529,11
12.98507309,-1.96772075,-3.75831723,9
13.10919952,-1.93882871,-3.58127809,9
12.44022751,-1.98463345,-3.75464606,10
12.58024597,-1.99093199,-3.74137259,11
12.71493149,-1.97199488,-3.61338067,12
12.8576088,-1.99122334,-3.65591669,10
12.9988308,-2.00244999,-3.65814376,10
13.13204193,-1.9940393,-3.57420731,6
12.45930099,-2.02557802,-3.6808579,11
12.59932899,-2.03199959,-3.66857791,11
12.74071693,-2.04606295,-3.6855669,10
12.87960052,-2.04991031,-3.66051674,11
13.01960373,-2.05683231,-3.64414358,12
13.14605522,-2.03271174,-3.49772811,8
12.47924995,-2.08293605,-3.68262005,9
12.62051201,-2.0946548,-3.68881631,9
12.75916672,-2.09405828,-3.64416456,12
12.89684105,-2.09372401,-3.60150599,12
13.03351021,-2.09415245,-3.55674911,8
13.16922379,-2.09595799,-3.51485133,8
12.49749947,-2.12685704,-3.62459397,9
12.64046669,-2.15288234,-3.68946218,11
12.78170013,-2.16423202,-3.69268227,11
12.9180088,-2.15700245,-3.61864662,8
13.05335808,-2.15028095,-3.54858589,9
13.18229866,-2.13538408,-3.44433522,9
12.51623726,-2.18003368,-3.6087482,8
12.65517426,-2.18536472,-3.5875442,11
12.80280113,-2.22590327,-3.704983,17
12.93792152,-2.21473813,-3.61532187,8
13.06198311,-2.18100762,-3.43989229,10
13.20105171,-2.18955278,-3.42836452,9
12.53216553,-2.21682048,-3.52542877,9
12.67307854,-2.24300981,-3.58324385,11
12.8120079,-2.2482183,-3.56104779,18
12.95099258,-2.25491071,-3.54269791,21
13.08084297,-2.23727536,-3.43273044,7
13.2267189,-2.26376152,-3.48542094,10
12.54901505,-2.27299786,-3.51729131,10
12.68825722,-2.28450251,-3.52151895,15
12.82999611,-2.30771661,-3.56357288,16
12.96879959,-2.31058002,-3.53058243,7
13.10439491,-2.3092947,-3.48000169,14
13.24338341,-2.31685662,-3.4605372,10
12.57502174,-2.3986299,-3.76145053,13
12.70399284,-2.33847427,-3.50358987,15
12.84440041,-2.35441566,-3.5193491,10
12.98343468,-2.36333847,-3.50273681,12
13.12230301,-2.36780906,-3.47458649,11
13.26250648,-2.38042188,-3.47161365,9
12.58490753,-2.41214728,-3.5954206,12
12.7251358,-2.42425919,-3.59654069,8
12.8601799,-2.40974855,-3.5042727,9
12.9946003,-2.40390396,-3.44116759,10
13.1336441,-2.4129498,-3.42554832,9
13.27485275,-2.42641568,-3.42145276,10
12.5967617,-2.44726896,-3.50630379,9
12.73464584,-2.4511323,-3.48126006,9
12.89895058,-2.55671,-3.80007553,7
13.00810432,-2.45346427,-3.40365243,11
13.15634727,-2.49006057,-3.4812665,11
13.28414726,-2.47022748,-3.36957693,10
12.61030197,-2.49645209,-3.4738729,10
12.74950981,-2.5083344,-3.47301602,8
12.8874836,-2.51492047,-3.45368171,6
13.03108215,-2.53638005,-3.4818244,10
13.16774178,-2.53668547,-3.43607426,9
13.31457329,-2.56502557,-3.47945499,16
12.62572098,-2.56613302,-3.50942302,8
12.76988792,-2.60106421,-3.58123779,12
12.89648819,-2.55193496,-3.37947345,11
13.04038811,-2.58031487,-3.43094134,19
13.17818642,-2.58394122,-3.39585233,11
13.32941818,-2.62198186,-3.46922755,11
12.63842583,-2.61978483,-3.48854041,19
12.77493858,-2.61588359,-3.43323636,11
12.91533279,-2.6324482,-3.44589448,8
13.05432129,-2.64000964,-3.42642784,7
13.20461845,-2.67967391,-3.50464869,11
13.34114456,-2.67751098,-3.44711185,8
12.65170479,-2.6877768,-3.51021361,15
12.78679276,-2.6730113,-3.42402124,14
12.93056679,-2.69904685,-3.46469688,11
13.07654572,-2.73160958,-3.51764059,16
13.23219109,-2.78034258,-3.62088466,12
13.35404778,-2.73685312,-3.43963003,16
12.67078018,-2.79958653,-3.66646862,9
12.80748749,-2.77526927,-3.55222178,18
12.94140625,-2.75681424,-3.45239162,7
13.0974884,-2.81655073,-3.58752084,9
13.23271751,-2.80673814,-3.50877619,12
13.38029099,-2.83024931,-3.52957129,12
12.67721367,-2.82316279,-3.54860497,9
12.82579231,-2.86953282,-3.64818215,9
12.97015572,-2.88727927,-3.65460658,10
13.10614014,-2.87039876,-3.55960107,16
13.24351883,-2.86401391,-3.49250364,8
13.4255619,-2.97579646,-3.76603007,10
12.6911087,-2.90760255,-3.61358023,12
12.83675766,-2.93126082,-3.64344621,7
12.97989082,-2.94296432,-3.63350224,9
13.13199806,-2.98025918,-3.69285226,10
13.28266144,-3.00644422,-3.7193315,11
13.43526268,-3.03185916,-3.73984051,19
12.70660019,-3.00822902,-3.71986508,12
12.84308243,-2.97710609,-3.59134841,8
13.00043106,-3.04573965,-3.74148512,13
13.14765739,-3.06096983,-3.73610306,9
13.30381393,-3.10043049,-3.79715896,10
13.45402718,-3.11623526,-3.78865099,13
12.71422958,-3.06184745,-3.68996859,12
12.8582077,-3.06920528,-3.66947007,8
13.00934029,-3.10763192,-3.72969604,9
13.15661049,-3.12335372,-3.72828269,12
13.32616997,-3.20009089,-3.8883779,13
13.45850372,-3.16718888,-3.74500918,11
12.72206497,-3.12040997,-3.67557812,10
12.87107849,-3.15577793,-3.72713661,12
13.01369667,-3.15387845,-3.68059134,12
13.17355919,-3.21246052,-3.79063392,12
13.32837677,-3.24452567,-3.82440448,11
13.48517418,-3.27631211,-3.85617352,11
12.73174095,-3.20220995,-3.71875405,15
12.88167381,-3.23496222,-3.76558805,10
13.02633286,-3.2351377,-3.71977377,12
13.18383598,-3.28447914,-3.80377531,11
13.33517265,-3.30422831,-3.80283093,10
13.48976517,-3.33110285,-3.81910849,14
12.74947357,-3.33907056,-3.9061811,9
12.88732529,-3.29047465,-3.73446846,10
13.06058693,-3.41393352,-4.01167727,17
13.20807457,-3.41035438,-3.95219088,14
13.34780312,-3.38623428,-3.83990383,16
13.49114227,-3.37926006,-3.76879001,11
12.7594986,-3.43163729,-3.97119546,11
12.89961243,-3.38943648,-3.81882167,9
13.05469894,-3.42805314,-3.87294006,11
13.21622658,-3.48006082,-3.95455623,13
13.35486412,-3.45323443,-3.83657002,12
13.53256035,-3.53877282,-3.99549413,13
12.76035118,-3.46606803,-3.88328242,8
12.9169445,-3.51814795,-3.97300148,8
13.06324577,-3.50827122,-3.90322256,14
13.22115898,-3.54387879,-3.94156146,8
13.3823204,-3.58735943,-3.99501491,13
13.53302193,-3.59041429,-3.94878268,11
12.76822853,-3.55520654,-3.93665075,10
12.915905,-3.55557966,-3.89279675,10
13.06941414,-3.57900214,-3.90548062,9
13.23087883,-3.63027167,-3.98114491,16
13.39631653,-3.68110752,-4.05379725,12
13.54923439,-3.69081306,-4.02082634,18
12.76979065,-3.60806179,-3.8998549,9
12.93240166,-3.69037461,-4.05529881,9
13.07946396,-3.674299,-3.96814179,13
13.24876595,-3.74945569,-4.0992136,9
13.41051292,-3.78216195,-4.12275791,12
13.55212212,-3.75491858,-4.00177097,9
12.78098869,-3.73601818,-4.03907347,12
12.93658638,-3.7621305,-4.05745029,13
13.08356667,-3.74345541,-3.96557713,11
13.25290871,-3.82071948,-4.09739447,12
