0.8676703,-2.23958683,-11.87646675
1.10208893,-2.18141985,-11.95235348
-0.02658647,-2.43148613,-11.30594254
0.20623094,-2.37456894,-11.46044827
0.43524572,-2.31880093,-11.57702827
0.66965067,-2.26004696,-11.68646431
0.91514111,-2.19964314,-11.80705357
1.18650663,-2.13158894,-11.97360039
0.06358575,-2.38446951,-11.38312912
0.28740799,-2.3285265,-11.49964428
0.51578718,-2.27174664,-11.60818863
0.76979452,-2.20740795,-11.7668047
1.04138982,-2.1394701,-11.94551277
1.26586378,-2.08143187,-11.98458672
0.14508018,-2.33746433,-11.43038368
0.37748125,-2.27830696,-11.56255531
0.59286898,-2.22307825,-11.62775517
1.12300491,-2.08803272,-11.96419716
1.38467407,-2.02001524,-12.08981514
0.24854967,-2.28365183,-11.54059887
0.48182818,-2.22327375,-11.6675024
0.73542905,-2.15803957,-11.83024502
0.94238245,-2.10352635,-11.84412861
1.2057488,-2.03448677,-11.99077511
1.47658384,-1.96413398,-12.12890434
0.3167125,-2.23722744,-11.54354
0.54068273,-2.17798948,-11.64166641
0.7897169,-2.11224651,-11.78592014
1.05841637,-2.04164076,-11.95697975
1.30366611,-1.97683871,-12.0470295
1.53635263,-1.91347957,-12.09060478
0.39539844,-2.18647528,-11.5790453
0.62831008,-2.12398958,-11.69479465
0.88251388,-2.05648899,-11.8462019
1.13761306,-1.98755991,-11.97606373
1.37750685,-1.9223913,-12.04878712
1.61554348,-1.85725796,-12.10050106
0.47035679,-2.13520479,-11.60607624
0.68513,-2.07796097,-11.66423512
0.95396382,-2.00347209,-11.85045815
1.20779657,-1.93466055,-11.97343826
1.46119237,-1.86461246,-12.07308578
1.69644988,-1.799806,-12.11514473
0.54612613,-2.08278847,-11.63293648
0.78278142,-2.01767588,-11.74897003
1.05533826,-1.9415642,-11.93447971
1.29554915,-1.87543309,-12.01526546
1.51825225,-1.81341422,-12.03731155
1.74619126,-1.74956322,-12.0614109
0.61191219,-2.03171253,-11.63826847
0.8752358,-1.95801127,-11.81636524
1.11493003,-1.89013088,-11.91246986
1.39201605,-1.81204593,-12.07982731
1.60272539,-1.75255632,-12.06852818
1.81526101,-1.69269085,-12.05078506
0.70224524,-1.97238302,-11.70504475
0.95985144,-1.89834857,-11.86384869
1.19701278,-1.83070326,-11.94618607
1.45799375,-1.75566709,-12.06876183
1.67897558,-1.6927377,-12.07687092
1.91084015,-1.62624264,-12.10223675
0.79318511,-1.90999103,-11.77775669
1.04717362,-1.83629262,-11.91689587
1.29711366,-1.76383495,-12.02222252
1.55897176,-1.68757784,-12.13953018
1.7508893,-1.6325264,-12.07888508
1.93153667,-1.57993722,-11.98883057
0.89550471,-1.84305394,-11.87677383
1.11812246,-1.77838147,-11.92827892
1.35527837,-1.70859516,-12.0014286
1.61516857,-1.63151884,-12.10891533
1.80539238,-1.57669377,-12.04451656
2.04610372,-1.50588918,-12.08242035
0.93531144,-1.7942847,-11.81268597
1.18570447,-1.71991837,-11.93315411
1.41899621,-1.65056026,-11.99075127
1.61500216,-1.5930562,-11.94863224
1.88746214,-1.51004732,-12.06794167
1.0217495,-1.7283721,-11.8698988
1.24355066,-1.66270435,-11.91238499
1.46457958,-1.59697115,-11.93975735
1.70150101,-1.52492774,-11.99155712
1.95587158,-1.44729364,-12.06445599
2.12935972,-1.39664674,-11.95643044
1.08120215,-1.67201054,-11.85698223
1.30742598,-1.6027199,-11.90977955
1.55595601,-1.52624762,-12.00004387
1.76189494,-1.46433342,-11.97636318
1.99336815,-1.39379787,-11.99766445
2.24626517,-1.31516135,-12.05251408
1.15749776,-1.60645127,-11.89267445
1.37563682,-1.54019094,-11.92158699
1.57956839,-1.47866929,-11.90336514
1.83366847,-1.39919424,-11.98746872
2.05459499,-1.33105361,-11.9832983
2.26538086,-1.26620317,-11.94952011
1.23909914,-1.53818846,-11.9425993
1.40945554,-1.48924732,-11.84941387
1.66757798,-1.40739441,-11.95714474
2.12347317,-1.26324654,-11.98675632
2.32861257,-1.20012927,-11.93777847
1.27580607,-1.48483515,-11.87697124
1.69143522,-1.35678744,-11.8644352
1.97456622,-1.26321924,-12.0060091
2.19029593,-1.1956991,-11.98449898
2.37649035,-1.1381737,-11.89537144
1.33270144,-1.42383909,-11.86546421
1.49379826,-1.37617135,-11.75468254
1.74200392,-1.29558396,-11.83578396
2.04267597,-1.19455016,-12.01163006
2.23774481,-1.13385224,-11.94522285
2.44166183,-1.06884468,-11.8913517
1.3680532,-1.36874545,-11.80513954
1.58263922,-1.29980934,-11.81737232
2.10516143,-1.12661028,-12.00304317
2.48861194,-1.00504041,-11.85111809
1.40317941,-1.31273961,-11.74992752
1.89068758,-1.15066338,-11.8873148
2.1501708,-1.06312394,-11.96317291
2.36413455,-0.99376398,-11.93381882
2.51610065,-0.94801545,-11.77797127
1.49655831,-1.23281229,-11.82900906
1.96148205,-1.07766843,-11.90558624
2.19931197,-0.99811387,-11.9357357
2.38455796,-0.93974364,-11.84778595
2.55727148,-0.88609403,-11.73272991
1.51764023,-1.18173647,-11.74392509
1.77855062,-1.09133387,-11.85201073
2.01288152,-1.01137781,-11.88584805
2.22546864,-0.9412815,-11.8608036
1.59855187,-1.10351861,-11.79888821
1.80651593,-1.03433347,-11.78691292
2.07414818,-0.94075203,-11.88964272
2.27860594,-0.87275696,-11.84680653
2.6347332,-0.75897205,-11.64105988
1.64399242,-1.03912771,-11.77316093
1.8825928,-0.95670217,-11.82650566
2.13017344,-0.8698172,-11.88219357
2.32173753,-0.80657679,-11.81028557
1.99320817,-0.86125374,-11.93977928
2.20278955,-0.79057252,-11.91019344
2.36444211,-0.74050498,-11.77689743
2.71282291,-0.62778413,-11.55632114
2.03379035,-0.79551691,-11.90576935
2.23522139,-0.72794092,-11.85739613
2.42626476,-0.66374677,-11.783535
2.57913542,-0.61791408,-11.6326046
2.76631451,-0.5541479,-11.54319
1.84144509,-0.81160951,-11.84379768
2.06847978,-0.73160481,-11.86067009
2.59131622,-0.56220412,-11.5480566
2.78537989,-0.49545038,-11.47054672
1.86046851,-0.75491953,-11.76916313
2.10240054,-0.66683072,-11.81773186
2.2658608,-0.61659557,-11.69426918
2.45934391,-0.55110395,-11.6290884
2.63196349,-0.49345541,-11.51703453
2.8164556,-0.43107831,-11.42305374
2.11914253,-0.60948861,-11.74248791
2.30036831,-0.54976332,-11.65627193
2.51685119,-0.47294915,-11.63039589
2.67852497,-0.42187777,-11.49809456
2.82940269,-0.37329328,-11.34443283
1.975878,-0.60185456,-11.79311657
2.13543439,-0.55325913,-11.66938114
2.34534979,-0.47846997,-11.63966274
2.52612042,-0.41771606,-11.54639244
2.69774818,-0.36123058,-11.43352413
2.90052104,-0.28817594,-11.36955738
1.98835468,-0.54618585,-11.71563435
2.18996477,-0.475656,-11.67632961
2.72922873,-0.29481709,-11.38999081
2.91572666,-0.22911043,-11.29863358
2.56567407,-0.29531658,-11.42414856
2.9342041,-0.16659698,-11.23721981
2.06951213,-0.40296453,-11.67995262
2.23597503,-0.35037732,-11.56911755
2.44313264,-0.27491176,-11.53074169
2.79681301,-0.15440935,-11.3232975
2.97416878,-0.09297089,-11.21234035
2.28790545,-0.27014795,-11.57548332
2.46368694,-0.21113464,-11.47604275
2.63050652,-0.15637276,-11.35798645
2.82122588,-0.08806349,-11.27496243
2.99993467,-0.02542832,-11.16678715
2.12125492,-0.27193695,-11.59192753
2.30191493,-0.21032906,-11.50985241
2.48227835,-0.14867955,-11.42070961
2.64015722,-0.09716524,-11.28503227
2.84638333,-0.02064654,-11.23155689
3.00112176,0.03050712,-11.08425808
2.1505456,-0.2029963,-11.56095695
2.50529337,-0.08260125,-11.37568855
2.68520212,-0.01992363,-11.27949429
2.87978005,0.05095461,-11.20283508
3.04221416,0.10624206,-11.06727123
2.17753363,-0.13440739,-11.52838039
2.31837606,-0.09445682,-11.368577
2.52751827,-0.01666534,-11.33183098
2.69417787,0.03908361,-11.21378613
2.19070888,-0.0738015,-11.4700079
2.39172673,-0.00025234,-11.42465878
2.54107594,0.04497805,-11.27641964
2.72082543,0.108643,-11.18023968
2.19851136,-0.0159744,-11.40250111
2.38555646,0.05057882,-11.33136845
2.56945992,0.11677164,-11.24861717
2.20132565,0.04011253,-11.32882309
2.4035809,0.11785346,-11.28826237
2.23810673,0.11803994,-11.32377911
2.38793302,0.16324583,-11.18358803
-0.42073494,-3.98246288,-11.16190624
-0.35432318,-4.05504131,-11.26075554
-0.31877688,-4.11787558,-11.23596954
-0.29326943,-4.17683935,-11.17737484
-0.24027249,-4.24365091,-11.20944405
-0.3981314,-4.30464172,-11.1327467
-0.17972609,-4.31256056,-11.26355076
-0.36290947,-4.36335993,-11.09879589
-0.14755726,-4.3705616,-11.2138834
-0.31143111,-4.4282403,-11.1189127
-0.1074772,-4.43062639,-11.18821526
-0.26438865,-4.48952436,-11.11842537
-0.05114089,-4.49685192,-11.21661186
-0.41357538,-4.54836273,-11.06246662
-0.2094565,-4.55387735,-11.14094639
-0.01522802,-4.55222607,-11.16722679
-0.35977304,-4.61188698,-11.08518028
-0.16861543,-4.60972595,-11.11201668
0.08403902,-4.63440323,-11.32324696
-0.31707862,-4.66849661,-11.05998993
-0.11059069,-4.67358494,-11.13497639
0.1255334,-4.6910553,-11.2860775
-0.46568516,-4.72313595,-10.99978542
-0.27355167,-4.72295713,-11.03562737
-0.05521441,-4.73468399,-11.14617443
0.16616628,-4.74578381,-11.24598026
-0.42091367,-4.77848196,-10.98131275
-0.21426076,-4.78669834,-11.06547165
0.00183414,-4.79656076,-11.16012764
0.252336,-4.82123184,-11.34328175
-0.33050153,-4.85989094,-11.12369633
-0.13921189,-4.85758018,-11.14033413
0.08633099,-4.87123013,-11.254673
0.27489641,-4.86488914,-11.23818588
-0.52602768,-4.88136625,-10.88545799
-0.29288617,-4.90681505,-11.06876659
-0.10001122,-4.90636063,-11.09226608
0.12317979,-4.92022991,-11.19381905
0.34643173,-4.93188286,-11.28108692
-0.46572366,-4.94294071,-10.9171114
-0.24660695,-4.95981121,-11.04387283
-0.05108946,-4.95997572,-11.06994629
0.17970189,-4.97901297,-11.19662952
0.44475788,-5.01166153,-11.39554882
-0.40336347,-5.00425529,-10.95448494
-0.20100847,-5.01086664,-11.01703644
0.02474397,-5.02857399,-11.13445663
0.2415314,-5.03802824,-11.20558834
0.48454025,-5.05918121,-11.3351469
-0.3369565,-5.06806135,-11.00030708
-0.13462858,-5.0735364,-11.05267715
0.07483882,-5.08100843,-11.11393642
0.30953524,-5.1013422,-11.23280621
0.51903051,-5.10332108,-11.26040745
-0.50634706,-5.09858131,-10.84995747
-0.29310778,-5.11413193,-10.95743847
-0.07610115,-5.12898874,-11.05811405
0.17106459,-5.16011858,-11.22877121
0.37986341,-5.16330099,-11.26262379
0.60115933,-5.17178631,-11.31460476
-0.42460397,-5.17177868,-10.95312023
-0.22528076,-5.17666721,-11.00094604
0.00459021,-5.19893217,-11.13090611
0.20844325,-5.20184851,-11.16057777
0.42217198,-5.20844412,-11.20680046
0.66341096,-5.22855282,-11.31124306
-0.3980394,-5.20369864,-10.85217285
-0.18625271,-5.21724272,-10.94259834
0.06630331,-5.25495338,-11.14186859
0.29080141,-5.27043009,-11.22693825
0.49080041,-5.26848793,-11.22367764
0.72902936,-5.28587055,-11.31439114
-0.11623769,-5.27936792,-10.98162842
0.12649763,-5.30904293,-11.14087296
0.35531124,-5.32591581,-11.23127651
0.56467032,-5.32884026,-11.25179863
0.78926283,-5.33874702,-11.29811668
-0.29564929,-5.2991395,-10.81463146
-0.04470988,-5.34128428,-11.02342606
0.1653176,-5.34849834,-11.07135868
0.39067167,-5.36375761,-11.15016651
0.86274385,-5.3979969,-11.31408501
-0.22382548,-5.36109734,-10.86349583
0.02611073,-5.40012264,-11.05310059
0.22817647,-5.40220261,-11.07393456
0.46365875,-5.42319012,-11.17436695
0.69594431,-5.43932772,-11.25089836
0.93938917,-5.45881844,-11.3345871
-0.1626839,-5.41309452,-10.86941051
0.05793812,-5.43134785,-10.96439266
0.31240395,-5.46839952,-11.13584328
0.53216559,-5.47809792,-11.1840601
0.76603025,-5.49395084,-11.25826263
0.98704261,-5.5000453,-11.27771473
-0.08105077,-5.4788065,-10.93992233
0.11688051,-5.47947216,-10.9564085
0.3417635,-5.49684811,-11.03635502
0.59519953,-5.52964449,-11.17843342
0.81386465,-5.53516102,-11.2023735
1.06160355,-5.55705309,-11.29039764
-0.01398735,-5.53305244,-10.95902157
0.21886304,-5.5577035,-11.07525539
0.4031682,-5.545609,-11.02996349
0.6542027,-5.57555342,-11.15616226
0.91130716,-5.60445213,-11.27715778
1.12639213,-5.60615683,-11.27423573
0.05696382,-5.58880424,-10.98658562
0.25997871,-5.59172869,-11.0062418
0.49021396,-5.61026716,-11.08624268
0.69970554,-5.61304188,-11.09657001
0.99203676,-5.66361713,-11.298913
1.18665731,-5.65274429,-11.24157429
0.12271086,-5.64009857,-10.99570751
0.32626295,-5.64083147,-11.00912666
0.56891322,-5.66789198,-11.12054729
0.79829937,-5.68215704,-11.17215633
1.03455055,-5.6973753,-11.2265873
1.2371062,-5.69049978,-11.18616295
0.1606997,-5.66840315,-10.91496849
0.38142136,-5.68322802,-10.98038483
0.61348331,-5.70138979,-11.05394077
0.85309047,-5.72244596,-11.13226032
1.06738603,-5.72429228,-11.13050365
1.31231284,-5.74323273,-11.18950176
0.2529051,-5.73658943,-10.9957819
0.47626379,-5.74989223,-11.0545845
0.6828382,-5.75100327,-11.05626965
0.89786249,-5.75492334,-11.06763363
1.1465019,-5.77752686,-11.14330006
1.41159177,-5.80686188,-11.24046421
0.29367301,-5.76456642,-10.92469788
0.51886374,-5.77963448,-10.98624325
0.7699874,-5.81143761,-11.10025406
0.97381455,-5.80658531,-11.07590199
1.19796371,-5.8131156,-11.08969975
0.34432223,-5.79836464,-10.87934971
0.60701072,-5.84104776,-11.04023075
0.82106471,-5.84512663,-11.05177593
1.32139277,-5.89184666,-11.20155716
1.52507246,-5.88365793,-11.15175343
0.43602201,-5.86245298,-10.95001698
0.65792835,-5.87374926,-10.99176311
0.88667864,-5.88700247,-11.03533936
1.14384544,-5.91662216,-11.13396358
1.61916912,-5.94182587,-11.18527031
0.50729477,-5.90981436,-10.95907307
0.71273392,-5.9079566,-10.95176125
0.58254319,-5.95760345,-10.97248936
5.04415512,-5.2679944,-11.32377625
5.00698233,-5.20824909,-11.33162594
4.97769547,-5.1494298,-11.35329628
4.9377923,-5.09014368,-11.36267281
4.89746141,-5.03096581,-11.3751812
4.87796068,-4.97690535,-11.4175024
4.88026142,-4.92780304,-11.48945713
5.0646162,-4.90631247,-11.34230614
4.83006096,-4.86708736,-11.49460316
5.06463528,-4.85655737,-11.41365147
4.80423784,-4.81202269,-11.53705597
4.99697542,-4.79341698,-11.40467834
4.75616503,-4.75311375,-11.55200958
4.95924902,-4.73607063,-11.43504429
4.71593237,-4.69713879,-11.57878876
4.68473625,-4.64191628,-11.62019253
4.82355356,-4.5634222,-11.51094818
5.0199976,-4.54633856,-11.38605309
4.59040356,-4.52607012,-11.66912174
4.78203726,-4.5077734,-11.54712296
4.97832251,-4.48970222,-11.42224026
4.53289223,-4.46765518,-11.68276882
4.75202036,-4.45351171,-11.59951115
4.94751453,-4.43558311,-11.47579384
4.85537958,-4.37315607,-11.45099545
4.39230585,-4.3494978,-11.67914963
4.5872407,-4.33182764,-11.56875992
4.8332963,-4.32289219,-11.52029991
4.75864506,-4.26402664,-11.519804
4.9685998,-4.25007772,-11.41484833
4.68408823,-4.20622396,-11.52439404
4.91155005,-4.19483232,-11.44473553
4.22747755,-4.18555975,-11.75140953
4.4098978,-4.16573191,-11.63107872
4.81481409,-4.13525009,-11.42591763
4.38614798,-4.11683083,-11.70681381
4.7454772,-4.07875872,-11.44075584
4.97445297,-4.06715775,-11.36386776
4.01581478,-4.06562948,-11.66117573
4.28342485,-4.05801105,-11.67182255
4.68902063,-4.02653265,-11.47668743
4.88874435,-4.01107931,-11.36240292
4.43128014,-3.98983574,-11.61295509
4.59258175,-3.96992826,-11.45684814
4.81805897,-3.9579258,-11.38364697
5.05541182,-3.94706869,-11.31234932
3.84669709,-3.95685339,-11.63449001
4.14701891,-3.95176411,-11.70221329
4.36100101,-3.9375782,-11.63007259
4.5426569,-3.91982603,-11.50381756
4.75532341,-3.90562487,-11.41361237
4.95918083,-3.89158487,-11.30367756
4.0526371,-3.89783669,-11.68000889
4.30601406,-3.88715076,-11.66678143
4.91580629,-3.84260225,-11.36268044
4.23411322,-3.83718538,-11.68423653
4.44517851,-3.82133532,-11.60344982
3.6245923,-3.80547857,-11.64834881
3.84655547,-3.79248619,-11.61238575
4.15301752,-3.78548098,-11.68708229
4.36117029,-3.77010822,-11.60684013
4.54786491,-3.75368547,-11.489851
4.75407362,-3.73942661,-11.39269733
3.5651381,-3.75774479,-11.6808424
3.80047441,-3.74589682,-11.66582584
4.04994583,-3.73391342,-11.66041279
4.30637121,-3.72180462,-11.6537199
4.5089221,-3.70615721,-11.56026745
4.68999004,-3.69046307,-11.42907047
3.52974391,-3.71368885,-11.75066376
3.70781589,-3.69581747,-11.64947319
3.99964237,-3.68698978,-11.7136097
4.24773264,-3.67506599,-11.69523144
4.40266991,-3.65616274,-11.53726196
4.65493441,-3.64444017,-11.50795078
3.39168191,-3.66187668,-11.65822601
3.65710688,-3.65093517,-11.69871044
3.90104651,-3.63780642,-11.69225979
4.15512276,-3.62511969,-11.69005394
4.37911177,-3.61152649,-11.63235378
4.58642673,-3.59616327,-11.54209805
3.54475546,-3.60164499,-11.65344906
3.80900264,-3.58974218,-11.6829443
4.07335949,-3.57869387,-11.70124912
4.2622242,-3.56206894,-11.59606075
4.48629999,-3.54739714,-11.53425884
3.19433451,-3.56839609,-11.59937
3.39558721,-3.55248642,-11.54886341
3.72854877,-3.54412794,-11.69493008
3.98142958,-3.53068829,-11.69801712
4.20404148,-3.51635885,-11.64462376
4.38217735,-3.49920845,-11.52106094
3.38527083,-3.51208162,-11.66701412
3.66126633,-3.50067806,-11.72588348
3.91807818,-3.48673534,-11.73942471
4.31839657,-3.4553647,-11.5656004
3.06871271,-3.48412275,-11.66272926
3.27708244,-3.46827841,-11.62820053
3.53026271,-3.4540844,-11.65562534
3.83017397,-3.44222593,-11.74364662
4.05725908,-3.42734289,-11.7036581
4.24912786,-3.41130352,-11.60301113
3.06373048,-3.44508791,-11.79721069
3.19902682,-3.42631149,-11.63878918
3.41082907,-3.41094351,-11.60567093
3.76847363,-3.40005493,-11.7868166
3.97308302,-3.3833518,-11.71635342
4.21724224,-3.36899376,-11.69560814
2.97792935,-3.40418482,-11.79297161
3.10321856,-3.38481522,-11.62010956
3.33650184,-3.36949444,-11.62473488
3.70686507,-3.35894585,-11.83507061
3.89164352,-3.34104061,-11.73671341
4.07547426,-3.32522821,-11.63144493
2.90224814,-3.36393166,-11.80925465
3.08439398,-3.34675312,-11.73478317
3.25321031,-3.32935905,-11.6332674
3.54393101,-3.31496668,-11.72395229
3.78429842,-3.29937029,-11.7171011
3.99627209,-3.28264046,-11.65850544
2.8364861,-3.32535028,-11.84407997
3.01935482,-3.30810452,-11.7735424
3.17461777,-3.28958368,-11.65009499
3.41889906,-3.27369213,-11.66997433
3.70920897,-3.2592001,-11.74751282
3.9115169,-3.2428484,-11.67544842
2.78500128,-3.28782892,-11.90477085
2.92865729,-3.2700038,-11.76821613
3.11141086,-3.25269985,-11.69159698
3.28811336,-3.23623323,-11.60389996
3.58291721,-3.22018385,-11.69584084
3.82425547,-3.2044282,-11.68880749
2.7332468,-3.25140333,-11.9685812
2.89144969,-3.23354244,-11.85477352
3.03686643,-3.21541643,-11.71687317
3.24223018,-3.19898701,-11.67780304
3.47354507,-3.18284702,-11.67260838
3.74092555,-3.16550541,-11.71262169
2.80951881,-3.19728899,-11.86718845
3.01368761,-3.18010664,-11.83341122
3.14044762,-3.16253567,-11.66132545
3.3894484,-3.14599895,-11.69049644
3.63297915,-3.12903786,-11.69626045
2.57352161,-3.18030977,-11.99776173
2.74692702,-3.16242075,-11.91573238
2.91434526,-3.14529467,-11.81752968
3.04465246,-3.12825871,-11.65293694
3.29457927,-3.11063385,-11.68802071
3.5537622,-3.09253263,-11.72342777
2.53516769,-3.14616489,-12.09270191
2.66868162,-3.1286931,-11.93463326
2.87411642,-3.11139297,-11.90773582
3.01293802,-3.09415483,-11.75581264
3.21344471,-3.0763793,-11.70845985
2.44897413,-3.11452198,-12.09479713
2.60507536,-3.09599209,-11.98136425
2.77357936,-3.07876539,-11.88906097
2.96738029,-3.06102371,-11.83887577
3.1043272,-3.04402828,-11.68221474
3.31786585,-3.02642679,-11.65484047
2.3954227,-3.08254623,-12.16714764
2.53196311,-3.06465578,-12.01461315
2.71478724,-3.04648113,-11.95016956
2.90653157,-3.02899933,-11.89426517
3.08025002,-3.01094341,-11.80302334
3.24886489,-2.99457026,-11.69952965
2.30184484,-3.05193329,-12.1563797
2.4806931,-3.03333235,-12.08757401
2.65970135,-3.01571798,-12.01875591
2.80376458,-2.99878883,-11.8780756
2.99986768,-2.98069572,-11.82949352
3.14435887,-2.96365738,-11.68568134
2.25120997,-3.0216217,-12.23737621
2.43493843,-3.00336266,-12.17784882
2.60764098,-2.98453712,-12.09288216
2.76182556,-2.96825838,-11.97272205
2.87878275,-2.95201111,-11.78009129
3.06183243,-2.93474817,-11.710536
2.1413939,-2.99420786,-12.19202328
2.32880569,-2.97553778,-12.14706516
2.51102066,-2.95748806,-12.0847683
2.67730951,-2.93953419,-11.98675919
2.83851647,-2.92225838,-11.8774929
3.03161478,-2.90358019,-11.82437038
2.02550411,-2.96863508,-12.13459873
2.2609632,-2.9485836,-12.19365883
2.41101193,-2.93089151,-12.06914806
2.60549164,-2.91215372,-12.0289917
2.75612855,-2.89533997,-11.90133953
2.93750572,-2.87729931,-11.82902718
1.94313931,-2.94365025,-12.1513567
2.11885071,-2.92461395,-12.08820343
2.35385466,-2.90353394,-12.1402092
2.54363537,-2.88443708,-12.09175587
2.72876239,-2.86591101,-12.02891731
1.83789122,-2.91968203,-12.11640549
2.03156304,-2.90129423,-12.09369183
2.24811268,-2.8797493,-12.11349106
2.44857883,-2.86024857,-12.08950615
2.6598618,-2.8401947,-12.07979298
2.82958269,-2.82271671,-11.9831953
1.72961855,-2.89906931,-12.06783485
1.94542694,-2.87779903,-12.0999794
2.15983343,-2.85759258,-12.11816406
2.356143,-2.8376832,-12.08883476
2.57286978,-2.81691694,-12.09234333
1.63612103,-2.8785367,-12.05417347
1.83175981,-2.85803175,-12.04936314
2.03862214,-2.83786869,-12.05469894
2.25686502,-2.81609678,-12.07825184
2.50065327,-2.79371929,-12.13980675
2.66375566,-2.77519655,-12.0362711
1.53155541,-2.85944605,-12.0130825
1.74813604,-2.83824205,-12.06033993
1.92244911,-2.81947327,-12.00049973
2.17240739,-2.79552031,-12.09648514
2.40679717,-2.7724247,-12.14145088
2.57665467,-2.75400114,-12.05193043
1.44809103,-2.84064388,-12.02404499
1.6451546,-2.82100821,-12.02610683
1.84345782,-2.80011749,-12.0248661
2.07588887,-2.77754831,-12.08647346
2.29966402,-2.7539854,-12.1191473
2.48153925,-2.7349658,-12.05587959
1.3265866,-2.82675219,-11.9373436
1.566504,-2.80262232,-12.0514431
1.74619436,-2.78321648,-12.00992584
1.9849956,-2.75884676,-12.09066868
2.17405653,-2.73902178,-12.05555534
2.41879153,-2.71455193,-12.12401962
1.23237324,-2.81136513,-11.92085266
1.46795321,-2.78684282,-12.02862263
1.63989735,-2.7685008,-11.97227859
1.85380816,-2.7455411,-12.00677586
2.07724833,-2.72314882,-12.0476675
2.27147889,-2.70156622,-12.01970959
1.1215111,-2.79907751,-11.85662746
1.38155782,-2.77245855,-12.03104877
1.55381906,-2.75315332,-11.98276424
1.76506543,-2.73057842,-12.01369095
1.97644353,-2.70785379,-12.03442192
2.17736173,-2.68644571,-12.02557564
1.01322651,-2.78748369,-11.80007648
1.25628829,-2.76219749,-11.94307041
1.44897044,-2.7412405,-11.94489861
1.66523242,-2.71806192,-11.99218082
1.86960888,-2.69533014,-12.0030117
2.07972121,-2.67272282,-12.01686096
0.91165304,-2.77799702,-11.75554943
1.1451149,-2.75301361,-11.87997341
1.35006499,-2.73057222,-11.92121315
1.58170903,-2.70441198,-12.00934315
1.80293798,-2.68049669,-12.0618
1.94287205,-2.66429472,-11.92595959
0.83549476,-2.76725769,-11.77649212
1.03724182,-2.74445629,-11.82848263
1.25791419,-2.7200036,-11.91154385
1.47914743,-2.69529247,-11.98127365
1.71781421,-2.66813564,-12.08029556
1.89063549,-2.64857244,-12.01868343
0.6985907,-2.76322556,-11.63177776
0.94983441,-2.73517513,-11.8210125
1.1816901,-2.70933914,-11.93758202
1.38896489,-2.68554258,-11.98142338
1.60170066,-2.66082525,-12.02220821
1.84289622,-2.63422918,-12.11772537
0.6261391,-2.75400782,-11.66020012
0.8266241,-2.73052835,-11.72258186
1.05498111,-2.70429087,-11.84283924
1.27343822,-2.679111,-11.92018986
1.49805939,-2.65394688,-11.99742699
1.72441351,-2.62734556,-12.06313229
0.50995326,-2.75130177,-11.56457806
0.7133323,-2.72755241,-11.64269352
0.97397178,-2.69728374,-11.85660362
1.18657911,-2.6719203,-11.92485809
1.40293264,-2.64686728,-11.98531151
1.62129319,-2.62142086,-12.04030323
0.42921451,-2.74613571,-11.56713772
0.66114789,-2.71783686,-11.73042965
0.84283584,-2.69665432,-11.73427486
1.05718613,-2.67119837,-11.81746101
1.33177423,-2.63866949,-12.03079987
1.51270735,-2.6172123,-12.00325584
0.36912602,-2.73943329,-11.63197041
0.52409345,-2.72083235,-11.57874584
0.74624246,-2.69364929,-11.70521259
0.99366468,-2.66401911,-11.88088608
1.19054973,-2.64066744,-11.90732288
1.42022967,-2.61289215,-12.00290394
0.23633862,-2.74369192,-11.47443867
0.42777035,-2.71966839,-11.5384779
0.6535579,-2.6911459,-11.68560696
0.87823498,-2.6645236,-11.80856705
1.07247722,-2.640553,-11.83243084
1.32156229,-2.61035538,-11.98439884
0.13432074,-2.74412823,-11.40778923
0.33908445,-2.71952391,-11.5161438
0.54926425,-2.69307041,-11.62753773
0.76210511,-2.66702747,-11.72522831
0.97552758,-2.63972235,-11.81058788
1.21573663,-2.60976076,-11.94792366
0.04773531,-2.74465275,-11.38508129
0.24368852,-2.72020912,-11.47370243
0.43866774,-2.6967206,-11.54523277
0.66596842,-2.6679883,-11.69513226
0.90647715,-2.63727188,-11.85680485
1.09920609,-2.61351061,-11.87789726
-0.0323645,-2.74637222,-11.37950516
0.1416063,-2.72365761,-11.40406609
0.34433573,-2.69830894,-11.50769615
0.55833179,-2.67129469,-11.62346268
0.7797783,-2.64317465,-11.74699306
0.97334546,-2.61940479,-11.77810097
-0.12690258,-2.74977732,-11.32271671
0.06347474,-2.72619581,-11.40831089
0.25594679,-2.70114279,-11.48434067
0.45451605,-2.67618084,-11.5653553
0.68879539,-2.64552307,-11.73224354
0.91321993,-2.61685133,-11.85013199
-0.22220713,-2.75525761,-11.26000309
-0.02227092,-2.72964811,-11.38753319
0.15282977,-2.70776176,-11.41189861
0.35370561,-2.68165255,-11.51179028
0.56155586,-2.65441322,-11.61139584
0.79594558,-2.62460947,-11.76709175
-0.3278819,-2.76391125,-11.15552521
-0.10690808,-2.73493242,-11.36556244
0.07201222,-2.71168947,-11.41157627
0.271375,-2.68578911,-11.50869942
0.47728416,-2.65886831,-11.60866642
0.68937844,-2.63095951,-11.70951462
-0.39894015,-2.76852322,-11.17375755
-0.20620787,-2.74392748,-11.28940678
-0.00116803,-2.7166357,-11.42918873
0.16536939,-2.69481802,-11.42970943
0.36407509,-2.6689105,-11.51780128
0.5740025,-2.64040804,-11.6241188
-0.32177612,-2.75578022,-11.15120983
-0.09316671,-2.72488356,-11.38727093
0.07578813,-2.70277214,-11.39547539
0.29354161,-2.67367983,-11.55526161
0.48119643,-2.64900541,-11.59964371
-0.39258179,-2.76244116,-11.17451763
-0.18828353,-2.73542452,-11.32664299
0.01282603,-2.70863581,-11.45596886
0.18966356,-2.684515,-11.48608112
0.37576059,-2.65912104,-11.53378773
-0.31921053,-2.75219154,-11.14050865
-0.08646828,-2.71977139,-11.38900185
0.08223969,-2.697752,-11.40132332
0.30588624,-2.66683483,-11.57219601
-0.38782263,-2.76058388,-11.1685257
-0.17927638,-2.73210192,-11.33916569
0.02336737,-2.70409966,-11.47225666
0.20262274,-2.67968559,-11.51005459
-0.31060824,-2.75091076,-11.14907265
-0.08209209,-2.71895218,-11.3800478
0.0866374,-2.69592857,-11.393363
-0.37892312,-2.76228094,-11.17607021
-0.16811883,-2.73251867,-11.35440731
0.03271649,-2.70468473,-11.47766495
-0.30435005,-2.75492573,-11.14595795
-0.07958352,-2.72345352,-11.3674593
-0.36787292,-2.76771784,-11.18633366
-0.15428928,-2.73762798,-11.37432384
-0.29429182,-2.76152515,-11.155406
-0.36440817,-2.77814198,-11.17367172
-0.56184506,-5.25756979,-10.77746105
-0.53809106,-5.19780874,-10.84122086
-0.5091058,-5.14364147,-10.93360615
-0.5207743,-5.05873489,-10.87938786
-0.49359933,-5.00179911,-10.97002316
-0.52342784,-4.90690041,-10.85490704
-0.51208317,-4.84075832,-10.89643574
-0.50152791,-4.77475882,-10.93912792
-0.49377528,-4.70715237,-10.97925758
-0.4981012,-4.63279104,-10.97166348
-0.4998233,-4.56025982,-10.98192596
-0.44127333,-2.64029884,-11.1478281
-0.39714372,-2.59800339,-11.09017467
-0.29452214,-2.54281664,-11.24119759
-0.42982033,-2.53959846,-11.18162632
-0.23326966,-2.49451017,-11.24741077
-0.38411298,-2.49408245,-11.12973022
-0.19411275,-2.45081091,-11.17539883
-0.30797434,-2.44004059,-11.19310379
-0.13207251,-2.39942551,-11.18852901
-0.23890719,-2.38686228,-11.23440456
-0.02431156,-2.3354702,-11.35269642
-0.36227906,-2.37825251,-11.2213583
-0.17440632,-2.33317471,-11.25721645
0.02159615,-2.28599596,-11.3108654
-0.30898255,-2.32695293,-11.20966244
-0.10771347,-2.27828217,-11.29282475
0.11647444,-2.22150946,-11.42857933
-0.24899966,-2.27289009,-11.2251606
-0.04574638,-2.22189379,-11.30995369
0.19739047,-2.15873289,-11.50312996
-0.3827863,-2.26652479,-11.17644405
-0.18782246,-2.21664333,-11.24345589
0.05362456,-2.15291309,-11.45015335
0.26323777,-2.0987711,-11.52761841
-0.3217411,-2.21042871,-11.20493126
-0.0783066,-2.14357638,-11.4305315
0.0993715,-2.09951544,-11.41641903
0.35291216,-2.02982759,-11.62689304
-0.27849972,-2.15840316,-11.16761684
-0.03224275,-2.08921599,-11.40485954
0.15074113,-2.04245138,-11.40497875
0.38596287,-1.97802222,-11.55688
-0.39965835,-2.14758396,-11.16836071
-0.20038223,-2.093225,-11.25687695
0.0488739,-2.02248192,-11.48947334
0.2247864,-1.97658074,-11.46752167
0.46205819,-1.90975082,-11.61595058
-0.32734621,-2.08315182,-11.24243069
-0.14537364,-2.03482103,-11.26609802
0.09068853,-1.96664989,-11.45337296
0.28561595,-1.91428602,-11.48374081
0.50621837,-1.8515594,-11.58344555
-0.26038995,-2.01835251,-11.29917526
-0.074761,-1.96847379,-11.3272295
0.13026628,-1.91109455,-11.41056824
0.35559276,-1.84692705,-11.53683567
0.57535696,-1.78420949,-11.62652588
-0.42484969,-2.02274609,-11.148489
-0.19792855,-1.95511055,-11.34152031
-0.00473578,-1.9012481,-11.39150238
0.19495872,-1.84543526,-11.4504261
0.45650557,-1.76557338,-11.67959118
0.65515006,-1.70944524,-11.70005989
-0.37740669,-1.96538937,-11.14386559
-0.15841666,-1.89963043,-11.30381489
0.06442825,-1.83209825,-11.45285225
0.26463836,-1.77509797,-11.5045433
0.47891405,-1.71216393,-11.58710289
0.71976542,-1.63957882,-11.72664165
-0.32413861,-1.90334594,-11.16351604
-0.11289885,-1.83944643,-11.29136181
0.09497223,-1.77872849,-11.3873415
0.30836913,-1.71407843,-11.48325348
0.53757012,-1.64419711,-11.60769367
0.78397423,-1.5688169,-11.75734997
-0.25472376,-1.83330858,-11.2380228
0.1345036,-1.71930754,-11.35871506
0.35338718,-1.65193725,-11.46984386
0.59796304,-1.57399631,-11.63402939
0.83998156,-1.49809039,-11.76617813
-0.19481933,-1.76543212,-11.28177547
0.01532964,-1.69949257,-11.39453316
0.19519216,-1.64914775,-11.39211464
0.45767874,-1.56211603,-11.62708569
0.68371207,-1.49145842,-11.72972488
0.88765687,-1.43048608,-11.75523758
0.0439753,-1.6444329,-11.33137703
0.29445043,-1.56013846,-11.54928017
0.49828836,-1.49751627,-11.60326004
0.71722823,-1.42872596,-11.682827
0.95504206,-1.35227776,-11.79845238
-0.0863315,-1.62907147,-11.33677578
0.10981409,-1.56978703,-11.39629269
0.31482884,-1.50518906,-11.46934319
0.54115593,-1.43163586,-11.58713055
0.79245186,-1.347579,-11.75404358
0.99765724,-1.28434825,-11.77725124
-0.05547228,-1.57180214,-11.28741074
0.18576467,-1.48777688,-11.48871517
0.37707147,-1.42987537,-11.51558876
0.58287197,-1.36593127,-11.57019997
0.8361733,-1.27854466,-11.73973656
1.05332267,-1.20971441,-11.79319477
0.0013326,-1.49934149,-11.32962132
0.21723118,-1.42744541,-11.4452877
0.43484107,-1.35511494,-11.54842854
0.60970551,-1.30516565,-11.5133791
0.86664075,-1.21429789,-11.69439125
1.098441,-1.13747525,-11.78366184
0.05483692,-1.42625451,-11.36022472
0.27642438,-1.35061753,-11.49308491
0.47845182,-1.28522635,-11.54531479
0.69045669,-1.21635377,-11.60988617
0.92498988,-1.13533831,-11.72298813
1.11872256,-1.07559037,-11.7148056
0.10341886,-1.35483336,-11.37955856
0.30057257,-1.29124117,-11.43169975
0.53323835,-1.20887697,-11.57460976
0.74472201,-1.13905096,-11.63722706
0.96396816,-1.06501603,-11.70648098
1.18167591,-0.99299037,-11.75469685
0.16446394,-1.27582967,-11.43918228
0.37796092,-1.20108187,-11.5389719
0.57474852,-1.13831902,-11.57186985
0.80566853,-1.05684376,-11.68257618
1.00089073,-0.99495345,-11.6842556
1.21448672,-0.92344743,-11.7210331
0.19118679,-1.21421003,-11.39355373
0.42479879,-1.12681675,-11.55145836
0.63284951,-1.05651426,-11.61266613
1.04045486,-0.92257261,-11.67269039
1.23449826,-0.85972095,-11.66338253
0.24360257,-1.13535011,-11.43442726
0.4623121,-1.05683708,-11.54336357
0.66929942,-0.98563129,-11.59966469
0.88574302,-0.90999073,-11.66635609
1.0821383,-0.84692037,-11.66983128
1.30573177,-0.76799226,-11.72803211
0.27391401,-1.06932068,-11.40636921
0.47318241,-1.00031555,-11.45802879
0.7017976,-0.916255,-11.57521629
0.90494329,-0.84741032,-11.60887527
1.13643956,-0.7625314,-11.69806099
1.32219577,-0.70373094,-11.66289043
0.30065686,-1.0037601,-11.36982346
0.54679227,-0.90656871,-11.55373001
0.71795011,-0.85509747,-11.51120186
0.95594996,-0.76453578,-11.63468552
1.13509536,-0.70976818,-11.59368038
1.34983575,-0.63300866,-11.63015842
0.56955969,-0.84058213,-11.51282215
0.96395129,-0.70648336,-11.55188656
1.19289172,-0.61990726,-11.63439465
1.38359249,-0.55843699,-11.6114893
0.38836765,-0.84831935,-11.41306591
0.80745816,-0.69520652,-11.54590225
0.9847061,-0.63874894,-11.50725079
1.25197577,-0.52892482,-11.68298721
1.43459117,-0.47048473,-11.63619804
0.41585368,-0.77875084,-11.38953209
0.83850574,-0.62009108,-11.52975464
1.03022385,-0.55565822,-11.52593231
1.25640655,-0.46840477,-11.5997839
0.45934275,-0.69705665,-11.41267776
0.66476512,-0.62005347,-11.47120571
0.89011741,-0.53121769,-11.56958961
1.07749999,-0.46932894,-11.55135345
1.50105906,-0.31356037,-11.61112118
0.47427586,-0.63321286,-11.36104679
0.68809491,-0.55007589,-11.44232845
0.90380621,-0.46648747,-11.51206779
1.11547422,-0.38628083,-11.55718708
1.50357032,-0.25235438,-11.52927589
0.52162236,-0.54601276,-11.39864063
0.72670507,-0.46803942,-11.45619678
0.90887284,-0.40697896,-11.43690109
1.33694458,-0.2427758,-11.52823544
1.53472543,-0.17221934,-11.51810837
0.52380091,-0.48891452,-11.31692982
0.72852105,-0.4109745,-11.37251663
0.94050443,-0.32686841,-11.43378162
1.1436162,-0.25180879,-11.45615578
1.354895,-0.17049861,-11.4891243
1.58795202,-0.07597558,-11.5565033
0.56311089,-0.40487772,-11.34182262
0.76983637,-0.32360864,-11.40003204
0.97764415,-0.24303357,-11.44687366
1.38735902,-0.08823793,-11.48683167
1.60477269,-0.00287029,-11.5175848
0.58223999,-0.33356199,-11.31369495
0.7932291,-0.24768181,-11.38223076
1.00679171,-0.16329141,-11.44116497
1.21518052,-0.08145428,-11.47567368
1.38671184,-0.02760057,-11.40964508
1.6309818,0.07753211,-11.50223827
0.60364854,-0.25996131,-11.29426193
0.79956025,-0.18511899,-11.32203293
1.00973463,-0.10118099,-11.37346268
1.20264006,-0.02948633,-11.37133217
1.42456794,0.06137946,-11.42556667
1.58007264,0.10504025,-11.3199501
0.6305868,-0.18163273,-11.29203796
0.85793561,-0.08145197,-11.40002918
1.0281601,-0.02599114,-11.3504858
1.2383306,0.05715123,-11.3846426
1.42811787,0.12655196,-11.36380291
0.66618788,-0.0931373,-11.3175354
0.8498894,-0.02792667,-11.31008816
1.2585144,0.13557863,-11.36840343
0.6631074,-0.03593858,-11.24085426
1.06981683,0.12904897,-11.31780052
0.8889966,0.12666991,-11.27991486
1.07404613,0.19521809,-11.26606274
-0.42324135,-3.47514677,-11.14657593
-0.33469579,-3.53233767,-11.2726202
-0.28514352,-3.58482265,-11.24914742
-0.43051079,-3.64897442,-11.18139267
-0.2050558,-3.64079618,-11.33096409
-0.36620113,-3.70174789,-11.2091074
-0.14052054,-3.69448233,-11.35357094
-0.26149818,-3.76189709,-11.37494087
-0.09054595,-3.74471807,-11.31778145
-0.24249408,-3.80367517,-11.23589134
-0.01448737,-3.7979908,-11.37487125
-0.39128366,-3.86206388,-11.1493454
-0.1548622,-3.85960531,-11.33055592
0.07146808,-3.85393906,-11.44950485
-0.31395924,-3.91521931,-11.21331692
-0.10566124,-3.90683794,-11.2877388
0.14299893,-3.90549183,-11.47282028
-0.2354835,-3.96819878,-11.27809048
0.01406533,-3.96991301,-11.47628117
0.19949704,-3.95277262,-11.44696712
-0.36863285,-4.02779627,-11.24665165
-0.18133831,-4.01276207,-11.24753761
0.07885797,-4.01822186,-11.47739315
0.29744837,-4.00912905,-11.54686069
-0.30340841,-4.07520008,-11.26190472
-0.0850988,-4.06955242,-11.35995674
0.1206129,-4.05913258,-11.40024376
0.37234026,-4.05909157,-11.56749725
-0.23863909,-4.12157488,-11.27010822
-0.02268073,-4.11614656,-11.35537434
0.21492347,-4.11389208,-11.48756123
0.44492409,-4.107265,-11.57734299
-0.40130183,-4.16729498,-11.12589645
-0.18287179,-4.16384649,-11.2392168
0.05804382,-4.16650009,-11.40138531
0.26833948,-4.15638113,-11.4438858
0.49874613,-4.15065002,-11.52954197
-0.33411509,-4.213377,-11.14178276
-0.08833182,-4.21872234,-11.33869457
0.11832892,-4.20914698,-11.37780666
0.36031458,-4.20821381,-11.5102253
0.60649568,-4.20647812,-11.63270664
-0.25953791,-4.26056957,-11.17972088
-0.05004405,-4.25294209,-11.24884987
0.2153255,-4.26251698,-11.46968842
0.4412809,-4.25633478,-11.54293537
0.68167222,-4.2522006,-11.64203358
-0.39516234,-4.3123126,-11.13639832
-0.17340875,-4.3114233,-11.25423622
0.02821282,-4.30051804,-11.28408337
0.28672919,-4.30679178,-11.47663307
0.5091098,-4.29893923,-11.53220367
0.75139922,-4.29649401,-11.62894821
-0.33471969,-4.35300875,-11.12089252
-0.10213767,-4.35584831,-11.27137661
0.14279813,-4.35985756,-11.43181324
0.3681443,-4.35380077,-11.50720692
0.58731234,-4.34424257,-11.5470686
0.86257619,-4.35065794,-11.72434044
-0.25487971,-4.39950657,-11.17106915
-0.04755625,-4.39208031,-11.22839737
0.2190147,-4.40455008,-11.45313168
0.44211927,-4.39662886,-11.51263523
0.69354343,-4.398139,-11.63827801
0.9187817,-4.38753414,-11.67293739
-0.20228946,-4.43298578,-11.12535667
0.02223913,-4.43256569,-11.23557281
0.28308702,-4.44256163,-11.4318285
0.49995241,-4.43335438,-11.47008514
0.76199722,-4.43747187,-11.61720657
1.00165558,-4.43205881,-11.68591118
-0.12032766,-4.47914839,-11.17615509
0.10089517,-4.47596025,-11.26557732
0.35674301,-4.48341513,-11.43728352
0.59612131,-4.48144722,-11.53457451
0.83065301,-4.47578478,-11.59811592
1.10032594,-4.47957611,-11.73670864
-0.05157444,-4.5177269,-11.17942333
0.22008559,-4.53459549,-11.4165144
0.43561903,-4.52558136,-11.45298767
0.70325071,-4.53311872,-11.62151146
0.90859795,-4.51689768,-11.5987196
1.1721406,-4.51732016,-11.71296024
0.01211286,-4.55383968,-11.16324139
0.2921572,-4.57359266,-11.41511154
0.51433551,-4.56676054,-11.46870327
0.74197549,-4.55900764,-11.51924229
1.00898325,-4.56318426,-11.65426445
1.26113355,-4.56093264,-11.73191166
0.1358484,-4.61398745,-11.33167458
0.34412751,-4.60291672,-11.35317516
0.61725885,-4.61495256,-11.54720402
1.12582374,-4.61540747,-11.74857903
1.36042845,-4.60517979,-11.77236938
0.19166186,-4.64388704,-11.28429413
0.43556866,-4.64657688,-11.40726948
0.68145585,-4.64773703,-11.51460171
0.94464803,-4.6524744,-11.64525127
1.18592525,-4.64556599,-11.69634533
1.42812407,-4.63836479,-11.73608017
0.27575558,-4.68442822,-11.31833267
0.51201993,-4.68395853,-11.41418552
0.77497065,-4.69092894,-11.55813789
1.025388,-4.69011593,-11.64731503
1.29966187,-4.69400024,-11.77184486
1.54422987,-4.68637323,-11.80808353
0.36118191,-4.7247777,-11.35415459
0.58839929,-4.71927404,-11.41701126
0.81590283,-4.71246672,-11.46047211
1.09719527,-4.72278166,-11.62246227
1.39108825,-4.73417473,-11.79028988
1.63282681,-4.723804,-11.81378269
0.45910901,-4.76963282,-11.42538071
0.66866642,-4.75609541,-11.42830086
0.91838717,-4.75648594,-11.52372837
1.21018565,-4.76935005,-11.70111942
1.45265293,-4.76105452,-11.73773384
1.69701314,-4.75230646,-11.76280594
0.54303831,-4.80704594,-11.4502449
0.74205679,-4.78768063,-11.41839123
1.04326904,-4.80768633,-11.63993263
1.30425262,-4.80720711,-11.73022366
1.53740478,-4.79497242,-11.73696136
1.79871416,-4.79197788,-11.79257393
0.59696376,-4.82996988,-11.38783741
0.87049204,-4.84155655,-11.55127907
1.12938082,-4.84254885,-11.65113068
1.36256003,-4.83145189,-11.66804981
1.62717485,-4.83122444,-11.7444582
1.89159751,-4.82673168,-11.80150604
0.66931224,-4.8596487,-11.37402058
0.92929709,-4.86482191,-11.49814987
1.23750746,-4.88563061,-11.71231747
1.44970822,-4.86608076,-11.67396927
1.69983053,-4.85859537,-11.71224117
0.78027171,-4.90467739,-11.46522617
1.04436421,-4.91012669,-11.58351898
1.26782739,-4.89633751,-11.58387566
1.56711745,-4.90982151,-11.74566269
1.80961859,-4.89817286,-11.75780678
2.03023696,-4.87815428,-11.70976925
0.87262213,-4.94082642,-11.49766827
1.13069963,-4.94296551,-11.59769058
1.66332257,-4.94419861,-11.76719856
0.94828653,-4.96798706,-11.48726654
1.45762265,-4.96560907,-11.63455486
1.715608,-4.96005487,-11.68565178
2.2110188,-4.93903923,-11.702981
1.02987289,-4.99739599,-11.49005318
1.30241024,-5.00351477,-11.60883808
1.53944993,-4.99278545,-11.62403679
1.79619086,-4.98634529,-11.66924477
1.13605106,-5.03571844,-11.55049801
1.37754822,-5.02758026,-11.58729362
1.66144168,-5.03389072,-11.70602703
2.11269069,-4.99658823,-11.63357925
2.35007143,-4.98019791,-11.60590649
1.21801519,-5.06194878,-11.5470562
1.4460839,-5.04745674,-11.55062103
2.19328976,-5.01973343,-11.60897923
2.42942643,-5.00245762,-11.57542229
1.28171456,-5.07947445,-11.50309849
1.56640255,-5.08778429,-11.6298542
1.76446795,-5.05880117,-11.54615307
2.053478,-5.0640173,-11.64358807
2.25051856,-5.03291941,-11.5396986
1.41840017,-5.12681723,-11.62520313
1.64024568,-5.10789347,-11.59932899
2.11778021,-5.07927656,-11.58829403
2.38325214,-5.07220078,-11.61459827
2.59924769,-5.04646301,-11.53578663
1.4896431,-5.14429998,-11.59409332
1.95229053,-5.11181211,-11.56742668
2.43946004,-5.08247614,-11.54240417
2.65190935,-5.05620337,-11.45609951
1.59101653,-5.17398262,-11.63086796
2.27417803,-5.11613178,-11.53270245
2.55243635,-5.11225843,-11.57501316
1.6752547,-5.19578791,-11.62693405
1.88843644,-5.17079258,-11.57102776
2.10821533,-5.1478467,-11.52105713
2.34914303,-5.13199091,-11.50088024
2.60028148,-5.11864471,-11.48903561
2.7983532,-5.08517218,-11.37067986
1.72755206,-5.2026248,-11.55336857
1.98577833,-5.19483757,-11.59115887
2.19228768,-5.16652393,-11.50794888
2.42155337,-5.14615345,-11.46238041
2.68523216,-5.13610077,-11.4706583
2.9512527,-5.12448549,-11.4652586
1.82950544,-5.22810793,-11.58589649
2.07392001,-5.21500301,-11.5874958
2.28106022,-5.18555975,-11.50313091
2.52437878,-5.1682744,-11.4804554
1.91299057,-5.24590683,-11.57592964
2.14673543,-5.22712326,-11.55295467
2.3706429,-5.20344973,-11.49814606
2.60546279,-5.18322134,-11.45461082
2.84061718,-5.1618228,-11.40285969
3.21559739,-5.18442917,-11.57020092
1.98284388,-5.25543356,-11.53883934
2.18912792,-5.22620821,-11.46073627
2.46899366,-5.22318697,-11.5109024
2.67653418,-5.19249821,-11.41322327
2.94422674,-5.1816597,-11.41058159
2.06214523,-5.26874924,-11.52143097
2.28298187,-5.24456501,-11.46717644
2.52496839,-5.22747231,-11.4427166
2.74945736,-5.20253563,-11.37557602
3.08306575,-5.21281004,-11.48116589
3.44442987,-5.22693777,-11.6051054
2.11904645,-5.27194548,-11.45915508
2.36688852,-5.25717735,-11.45297813
2.61416101,-5.24132204,-11.43366623
2.87878299,-5.22997236,-11.43157768
3.19534874,-5.23343277,-11.501544
2.45115638,-5.26975584,-11.44074249
2.67151117,-5.24340582,-11.36925697
2.30234289,-5.30326605,-11.46970367
2.78773046,-5.26566648,-11.40927601
3.46073699,-5.2819829,-11.59999752
2.38595247,-5.31289959,-11.45652485
2.58673716,-5.2791748,-11.35291958
2.87838578,-5.27623749,-11.39990139
3.53344536,-5.28582287,-11.55008125
2.47177672,-5.32326078,-11.4490509
3.0059216,-5.29990244,-11.45514965
4.06280899,-5.32726145,-11.7330761
2.51413918,-5.31533384,-11.36282253
2.78762126,-5.3068943,-11.38356113
3.13508058,-5.32127476,-11.51006126
3.46820092,-5.32724237,-11.58922958
3.84326839,-5.34213924,-11.70862865
4.10742521,-5.31885004,-11.63727188
2.60768843,-5.32563543,-11.36918163
2.85829997,-5.30919361,-11.34619522
3.25919986,-5.34131765,-11.55570984
3.95018029,-5.35223961,-11.70947456
4.22172403,-5.3308568,-11.64289379
2.70476317,-5.33747482,-11.38203621
2.98908615,-5.33041525,-11.40995598
3.33882022,-5.34330606,-11.52787971
3.731112,-5.36500168,-11.68388653
4.04925251,-5.35940504,-11.69849396
4.32820225,-5.33892441,-11.63768387
2.79745078,-5.34585238,-11.38546848
3.14077544,-5.35881948,-11.50762272
3.84545875,-5.37714243,-11.70068741
4.43248892,-5.3452611,-11.62776279
3.2323277,-5.36422729,-11.5020628
3.96927023,-5.389925,-11.72898102
4.49684858,-5.33912992,-11.56395912
3.3369627,-5.37287951,-11.51957417
3.71357131,-5.38870478,-11.65192318
4.03878498,-5.3851819,-11.68052101
4.32912397,-5.36817074,-11.63903141
4.55276012,-5.33018923,-11.49047375
3.12926507,-5.38268805,-11.48574162
3.84940624,-5.40596867,-11.70757294
4.08845949,-5.37415791,-11.60306168
4.43286562,-5.37162018,-11.63424587
4.62296963,-5.32424164,-11.43576241
3.21993256,-5.38423967,-11.48434544
3.61532712,-5.40972328,-11.65916824
3.96438241,-5.41404295,-11.73130798
4.16196966,-5.36883736,-11.55995941
4.48599434,-5.36007023,-11.55919456
3.68816352,-5.40460253,-11.62331104
4.03077459,-5.4057188,-11.68031025
4.31514883,-5.38553047,-11.63172913
4.54929018,-5.35009909,-11.49856949
4.82448053,-5.32582331,-11.40991306
3.50975657,-5.42368317,-11.65543461
3.8367846,-5.42213202,-11.70305252
4.06968975,-5.38715935,-11.59046555
4.39435005,-5.37940502,-11.5977354
4.59868908,-5.33509398,-11.42312908
3.59700799,-5.42161322,-11.64443684
3.94265127,-5.42445135,-11.71616077
4.12580204,-5.37426233,-11.5270462
4.47619534,-5.37389803,-11.56631756
4.00868034,-5.4132247,-11.67128277
4.80640936,-5.33388758,-11.4164257
5.05733156,-5.3018775,-11.28735638
3.80537844,-5.4249053,-11.68141937
4.37991428,-5.38692522,-11.60763741
4.57914734,-5.34136057,-11.42886257
4.90673208,-5.33077955,-11.41012383
3.91775274,-5.42741489,-11.71265793
4.45064402,-5.37605858,-11.57105446
4.70269775,-5.34407949,-11.45906544
3.9942441,-5.41780853,-11.68927097
4.52686071,-5.36540651,-11.54159927
5.03566504,-5.3026042,-11.30864239
4.35339069,-5.38630724,-11.6206398
4.56148052,-5.34150934,-11.45550346
4.88079357,-5.32810307,-11.42806816
4.07595634,-5.37338495,-11.54230022
4.43468952,-5.37497711,-11.6024437
4.92813444,-5.3074832,-11.36307907
4.18003321,-5.36899424,-11.56274223
4.49520016,-5.35652304,-11.55642319
4.77425575,-5.33181858,-11.48332024
5.01313448,-5.29553413,-11.34317303
4.31181097,-5.37281513,-11.62500763
4.54495764,-5.33560991,-11.4991188
4.83609724,-5.31317139,-11.43908501
4.59042215,-5.31229782,-11.43747902
4.89001179,-5.29266834,-11.38712406
4.46891642,-5.34406471,-11.59765339
4.95693731,-5.27334261,-11.35414696
4.76977873,-5.28739262,-11.43762112
5.02869892,-5.25636673,-11.32845497
4.54825068,-5.28911638,-11.46924496
4.83629751,-5.26717091,-11.40877151
4.91668797,-5.2500515,-11.40182781
4.98377037,-5.22877598,-11.37692261
4.78664684,-5.23728848,-11.45603561
5.01656103,-5.19938183,-11.31344128
4.83190536,-5.2091217,-11.4085865
4.87621498,-5.18011045,-11.36231709
4.9488554,-5.15818167,-11.3567152
4.94936323,-2.61347342,-11.44532776
4.91749096,-2.57175159,-11.5043745
4.86504698,-2.53204012,-11.53978252
4.80415964,-2.49459648,-11.56661034
4.76628399,-2.4538455,-11.62576008
4.96660423,-2.43398476,-11.49095249
4.72262859,-2.41497755,-11.67990398
4.64986658,-2.37932539,-11.69674492
4.84063625,-2.35990047,-11.55454826
4.5804491,-2.34522915,-11.71909904
4.80504608,-2.32194281,-11.6234951
5.02081108,-2.29982138,-11.507164
4.47837782,-2.31381464,-11.69666004
4.95435429,-2.26538086,-11.54015255
4.65675449,-2.25524807,-11.66590118
4.57065201,-2.22466707,-11.67307758
4.82869434,-2.1985569,-11.62110424
4.49625254,-2.19445229,-11.69845009
4.75905752,-2.16568947,-11.65775681
4.99629688,-2.14147329,-11.56998062
4.39220333,-2.16750431,-11.68356895
4.66727209,-2.13805342,-11.66501331
4.87743902,-2.11779785,-11.54465866
3.86987066,-2.19219971,-11.45261574
4.58275604,-2.10932875,-11.6790514
4.82234669,-2.08489442,-11.60405731
4.1026144,-2.13031864,-11.53383064
4.70419121,-2.06215572,-11.58167458
3.68632603,-2.14473462,-11.44386959
3.97901678,-2.11122918,-11.49013805
4.40508461,-2.0573101,-11.70575619
4.64763737,-2.03253174,-11.64139938
4.88315916,-2.00660896,-11.55696011
3.59714341,-2.12266207,-11.44362545
3.89077973,-2.08706474,-11.49680138
4.58783054,-2.00241423,-11.70069599
3.75194192,-2.07215214,-11.42852592
4.72512245,-1.95601666,-11.62685585
4.9552722,-1.93287218,-11.53328323
3.40863824,-2.08101177,-11.43080521
4.63187981,-1.93380105,-11.64362717
3.34974051,-2.05668402,-11.47885036
3.56154633,-2.03388929,-11.41916466
3.81162691,-2.00554323,-11.40929127
4.15186596,-1.96206796,-11.51477718
4.55898237,-1.90866303,-11.689147
4.82602835,-1.87923038,-11.64969349
3.27144504,-2.03612423,-11.49696636
3.47864628,-2.01403284,-11.43407249
3.74297428,-1.98267245,-11.44796753
4.05027008,-1.94397843,-11.5107832
3.20374203,-2.01409793,-11.53446484
3.38240194,-1.99710536,-11.43013
3.6120708,-1.97175694,-11.39660454
3.91245747,-1.93411756,-11.45460892
4.25526857,-1.88919508,-11.5585804
3.14392352,-1.99299932,-11.58578396
3.31253433,-1.97742236,-11.46501637
3.53156614,-1.95261049,-11.41820431
3.08198309,-1.97223544,-11.63648033
3.2733779,-1.95243824,-11.55314445
3.67802286,-1.91050839,-11.40071678
3.96781826,-1.87433493,-11.43933678
3.03124332,-1.94988048,-11.70441246
3.17190003,-1.9402808,-11.53906155
3.58424664,-1.89635801,-11.40755367
2.95708895,-1.93287456,-11.73606777
3.10246611,-1.92262995,-11.58000469
3.30810905,-1.89981902,-11.52043629
3.47161627,-1.88592458,-11.38741493
3.73542356,-1.85361099,-11.39935684
4.05723524,-1.81080735,-11.4828186
2.89996123,-1.91252768,-11.80113888
3.06733346,-1.89820528,-11.683671
3.21598411,-1.88745034,-11.52903175
3.43041015,-1.86334169,-11.47901249
2.8065486,-1.90128076,-11.80185699
2.99173856,-1.88347518,-11.71664619
3.18135095,-1.86498332,-11.63365841
3.33061075,-1.85410261,-11.47687244
