5.18117237,-0.19180843,-9.87253571
5.16053295,-0.20818406,-9.46069145
5.16253281,-0.21620741,-9.07809925
5.17534018,-0.1215515,-10.65339947
5.14937449,-0.14457105,-10.21824265
5.18311501,-0.14571497,-9.85715199
5.15602255,-0.16711032,-9.43946362
5.17707348,-0.16825525,-9.07663918
5.17736769,-0.07144179,-10.6420002
5.15438509,-0.09605079,-10.21039104
5.18232536,-0.10008135,-9.843297
5.15058565,-0.12418807,-9.4204073
5.17658186,-0.12559989,-9.06176376
5.16967058,-0.02686311,-10.62333298
5.14337206,-0.05399041,-10.18830776
5.1870451,-0.05366057,-9.83756828
5.14932632,-0.08067099,-9.40769291
5.18740034,-0.07927046,-9.06101608
5.17350674,0.0234144,-10.62176704
5.15332747,-0.00280009,-10.19272041
5.18388844,-0.00845346,-9.82720757
5.15262699,-0.03552139,-9.40428066
5.19298172,-0.03477339,-9.05821133
5.17420816,0.07119048,-10.6177721
5.15222549,0.04266684,-10.18807793
5.18161297,0.03583357,-9.82076645
5.1468544,0.00623032,-9.39344311
5.18373489,0.00544707,-9.04397202
5.16605902,0.11759365,-10.60932446
5.14884138,0.08878607,-10.18282795
5.17757797,0.07981968,-9.81567192
5.1487565,0.05111217,-9.39334202
5.19290686,0.05141723,-9.0506506
5.12705755,0.15032345,-10.56712723
5.14636135,0.13498911,-10.18249416
5.17045116,0.12331188,-9.8101387
5.14808846,0.09454659,-9.39475632
5.18508387,0.09076828,-9.04328156
5.11591864,0.16992897,-10.15495396
5.1356988,0.1545701,-9.77837086
5.14895535,0.13919428,-9.39993572
5.19091797,0.13615274,-9.05363655
5.06710577,0.19604963,-10.10959148
5.07564735,0.1749506,-9.72296715
5.12005234,0.17026967,-9.37726402
5.15906286,0.16474321,-9.02951527
5.08013678,0.19762945,-9.34752941
5.14165163,0.1995095,-9.02195549
5.12827969,0.23686153,-9.02174282
5.11098337,0.27156967,-9.02026176
5.09341955,0.30518192,-9.02190208
5.06829453,0.33560634,-9.01888371
5.05894709,0.37239897,-9.03421307
5.0675416,0.41790247,-9.07049751
5.15350389,0.49717921,-9.18654633
5.1876936,0.55351955,-9.25352955
5.08783197,-5.9692564,-10.61690331
5.07556581,-5.99261999,-11.0273428
5.11497927,-5.92448425,-10.70775223
5.07266092,-5.93612289,-11.08894253
5.10940981,-5.86837244,-10.76578045
5.08620691,-5.88635683,-11.17203903
5.12991476,-5.82062292,-10.85678387
5.13670588,-5.76782131,-10.93395138
5.11602354,-5.70692587,-10.98146057
5.11147308,-5.65078783,-11.05048656
5.13168621,-5.60220051,-11.15170002
5.12591887,-5.54631376,-11.22502327
5.10060787,-5.48418856,-11.27641201
5.10175467,-5.42938757,-11.36373711
5.05917835,-6.00791693,-9.86116409
5.08011866,-5.98145151,-9.79787731
5.09448528,-5.95193291,-9.72964764
5.06391239,-6.00404978,-10.01683044
5.09373808,-5.91763067,-9.65089798
5.0902977,-5.97687197,-9.96676922
5.11764002,-5.89082098,-9.59824657
5.10667467,-5.94616461,-9.91035366
5.1294117,-5.86081743,-9.53862095
5.06878138,-5.99336243,-10.19574642
5.12668753,-5.9149127,-9.85732555
5.11226225,-5.81991625,-9.44955444
5.10375118,-5.96804857,-10.16244316
5.12777042,-5.87943935,-9.78940296
5.09637928,-5.77889729,-9.3673687
5.12916517,-5.93809271,-10.12064743
5.10309696,-5.8346405,-9.69656849
5.11956167,-5.75135994,-9.32806015
5.09045744,-5.9835,-10.4142971
5.12900162,-5.89879513,-10.0549221
5.10827017,-5.79965019,-9.63908863
5.13614702,-5.72177267,-9.28281116
5.12244415,-5.95366049,-10.38553143
5.10473299,-5.85195541,-9.96604538
5.12324762,-5.76627398,-9.59406948
5.11845779,-5.68012571,-9.20806694
5.07291937,-5.99668407,-10.67299461
5.12203407,-5.91445398,-10.3239212
5.10238266,-5.81306839,-9.90479946
5.13266945,-5.73275518,-9.54701996
5.09487486,-5.63736725,-9.13032055
5.11893606,-5.97093344,-10.6661253
5.10327482,-5.86682749,-10.24317074
5.12275982,-5.78098679,-9.87101269
5.13174343,-5.69473791,-9.49264336
5.10124779,-5.60233402,-9.0848217
5.11280489,-5.9255209,-10.60139275
5.09886599,-5.82526302,-10.18428993
5.12847328,-5.74300957,-9.82456779
5.10626364,-5.65028858,-9.41724968
5.11560011,-5.57222795,-9.05014229
5.09775829,-5.97878838,-10.93760204
5.10041809,-5.87902975,-10.5316925
5.11402225,-5.78893232,-10.14834023
5.12530994,-5.70233107,-9.77157402
5.10377979,-5.61155081,-9.36619949
5.1501689,-5.54522276,-9.03823757
5.12203741,-5.94213057,-10.91217232
5.09227896,-5.8340106,-10.47242165
5.13324738,-5.75409079,-10.12183762
5.11607122,-5.66055775,-9.7145977
5.11989069,-5.57820654,-9.33826065
5.16926289,-5.51346731,-9.01384449
5.11059666,-5.89354753,-10.84938145
5.10273457,-5.79438448,-10.43626308
5.12536144,-5.71112061,-10.0676384
5.10922623,-5.61949444,-9.66430855
5.12368965,-5.54168463,-9.30236149
5.19732904,-5.48547602,-9.00108719
5.09274054,-5.84289932,-10.78163147
5.11804819,-5.75610447,-10.40838623
5.11241341,-5.66488743,-10.0112648
5.11270857,-5.5809989,-9.62843323
5.13180494,-5.50655937,-9.27179527
5.23140287,-5.4586544,-8.99741173
5.09020472,-5.79815483,-10.73557377
5.12633801,-5.71588421,-10.37769985
5.1036725,-5.62213469,-9.96333027
5.1218586,-5.54270172,-9.60067368
5.1231575,-5.46486807,-9.22894573
5.25610065,-5.42717361,-8.9862299
5.10346222,-5.75719738,-10.71006203
5.12821054,-5.67359829,-10.34205914
5.10308266,-5.57921314,-9.92609596
5.13618612,-5.50772619,-9.58117008
5.11503124,-5.42412996,-9.18805218
5.28416348,-5.39624548,-8.98155403
5.11665201,-5.71631527,-10.68964958
5.11822271,-5.62702227,-10.29632092
5.10669994,-5.53977108,-9.89729977
5.13637114,-5.46780634,-9.55096149
5.1079669,-5.38429594,-9.15205956
5.33027935,-5.37075996,-8.99704361
5.11927032,-5.6729579,-10.6589365
5.11774921,-5.58415842,-10.26516819
5.11273575,-5.50003529,-9.87619019
5.13348436,-5.42737818,-9.52131176
5.10295963,-5.34420204,-9.12178802
5.28352642,-5.32071543,-8.92851925
5.12579679,-5.63010216,-10.63768101
5.10240889,-5.53641939,-10.21937656
5.12407827,-5.46053362,-9.86122417
5.12666655,-5.38451481,-9.48929214
5.09619093,-5.30440855,-9.09286308
5.13004446,-5.58659315,-10.61581898
5.09958696,-5.49297953,-10.19271374
5.13716507,-5.42387533,-9.85310745
5.11052179,-5.34006262,-9.45285892
5.10600471,-5.26826096,-9.08332157
5.11960459,-5.53819323,-10.58030224
5.10657024,-5.45115137,-10.17851353
5.13524771,-5.38035059,-9.83135986
5.11208677,-5.30008459,-9.43561745
5.10791016,-5.22925329,-9.06704998
5.11668873,-5.49075317,-10.55663776
5.10616541,-5.40741634,-10.15953541
5.13403273,-5.33776188,-9.8125515
5.10927057,-5.25878525,-9.41814232
5.11765862,-5.19318104,-9.06260681
5.10704422,-5.4443512,-10.52914619
5.1134429,-5.36563063,-10.15239716
5.13785601,-5.29650354,-9.80300808
5.10532475,-5.21665621,-9.40085888
5.12003946,-5.15419722,-9.05438519
5.10193968,-5.3973217,-10.50995922
5.11932325,-5.32411242,-10.14857197
5.14044142,-5.25649881,-9.79676437
5.10956049,-5.17843437,-9.39637566
5.1284318,-5.11638355,-9.05524635
5.10088158,-5.35278368,-10.49922276
5.12142944,-5.281147,-10.14236736
5.13443756,-5.21169472,-9.78184795
5.10344791,-5.13571262,-9.38456726
5.13223982,-5.07826948,-9.05389404
5.10020781,-5.30720806,-10.49145031
5.12391853,-5.23714399,-10.13912296
5.1419239,-5.17102766,-9.78587723
5.10748005,-5.09557343,-9.38618946
5.13132572,-5.03786469,-9.05133724
5.09646273,-5.26112223,-10.4842329
5.11952257,-5.19319153,-10.13206196
5.13258076,-5.12680817,-9.77463722
5.11354637,-5.05617952,-9.39253712
5.12962246,-4.99760056,-9.04994583
5.09723473,-5.21541262,-10.48432636
5.11982346,-5.14959764,-10.13329506
5.1400218,-5.08521366,-9.78476048
5.10824966,-5.0144515,-9.38974762
5.12238503,-4.95619106,-9.04751778
5.09810209,-5.17076492,-10.48950577
5.13026857,-5.10858822,-10.14796066
5.13775301,-5.04306698,-9.78750896
5.10367727,-4.9726572,-9.39089012
5.12906551,-4.9188118,-9.0609045
5.10215235,-5.12668514,-10.50020981
5.12092543,-5.06143141,-10.14480495
5.14099312,-5.00013351,-9.79838276
5.10875034,-4.93148851,-9.40450764
5.11613607,-4.87526989,-9.05745316
5.09829712,-5.07974529,-10.50418568
5.12093496,-5.01700068,-10.15624619
5.14794016,-4.95872259,-9.81673527
5.11452436,-4.89125633,-9.42106342
5.11335135,-4.83431053,-9.06743526
5.10230446,-5.03473711,-10.5209837
5.11565971,-4.97133207,-10.16253757
5.13672686,-4.91394949,-9.81803322
5.11343336,-4.85007191,-9.43479633
5.11260033,-4.79409552,-9.08213902
5.11979914,-4.99386692,-10.55672646
5.1074934,-4.92513704,-10.17036915
5.14098549,-4.87099028,-9.83990383
5.12198687,-4.80951309,-9.46100426
5.1109004,-4.75303698,-9.09802055
5.11615133,-4.94804764,-10.57186794
5.1026721,-4.88049793,-10.18371201
5.1379962,-4.82811594,-9.85599232
5.12896013,-4.76923895,-9.4895401
5.10364628,-4.71183538,-9.11187077
5.30746937,-4.69825029,-8.95720291
5.12497091,-4.90345716,-10.6030407
5.10668516,-4.8376298,-10.20969963
5.13143682,-4.78277302,-9.87167835
5.13577557,-4.7279768,-9.51808834
5.1121335,-4.67135143,-9.14317608
5.30870724,-4.65785027,-8.9827261
5.13239288,-4.85913277,-10.63752747
5.11144257,-4.79369116,-10.24061489
5.11649895,-4.73668718,-9.88177204
5.13988066,-4.68617201,-9.54916096
5.1229949,-4.63258266,-9.18017483
5.27434921,-4.61066198,-8.97806931
5.13586187,-4.81337833,-10.66865063
5.11940622,-4.74931717,-10.27805042
5.10492706,-4.6911521,-9.89837646
5.13788843,-4.64427471,-9.57524967
5.12929487,-4.59250832,-9.2159586
5.25489759,-4.56634092,-8.99004269
5.11852551,-4.7636447,-10.6801405
5.13503122,-4.7078948,-10.32633209
5.10564327,-4.64686251,-9.93002892
5.13232708,-4.59991026,-9.60093784
5.1384387,-4.55203199,-9.25629425
5.22840214,-4.52108383,-8.998209
5.11682129,-4.71671152,-10.71219444
5.13649273,-4.66253376,-10.36291218
5.11668396,-4.60513926,-9.97609711
5.11574411,-4.55418348,-9.61846161
5.13956738,-4.51077843,-9.2930069
5.20226717,-4.47579241,-9.0083437
5.10490894,-4.66726923,-10.73591232
5.13849592,-4.61712217,-10.40244579
5.1377306,-4.56400871,-10.03660583
5.10650253,-4.5094347,-9.64685154
5.13728237,-4.46804428,-9.32930565
5.16892672,-4.42857838,-9.01468563
5.10729599,-4.620821,-10.77840519
5.11852312,-4.56891108,-10.42054939
5.13318825,-4.51961756,-10.07329082
5.11402369,-4.46831369,-9.695611
5.11435699,-4.42231798,-9.34596252
5.14537048,-4.38398075,-9.03249359
5.1273489,-4.5779171,-10.84618568
5.10306787,-4.52107525,-10.44596386
5.13792753,-4.4758873,-10.1204834
5.12933397,-4.42705774,-9.75310612
5.10669947,-4.37942505,-9.38121223
5.12384558,-4.34012794,-9.05502415
5.1331954,-4.53308058,-10.90027428
5.11420012,-4.47747707,-10.50520325
5.12502813,-4.42974901,-10.15257549
5.148736,-4.38628626,-9.82104206
5.11248159,-4.33760166,-9.43231392
5.10268307,-4.29624128,-9.07952213
5.13361835,-4.48501682,-10.95022106
5.12887955,-4.43441391,-10.57193375
5.10489988,-4.38269186,-10.17987919
5.13934088,-4.34269094,-9.85863304
5.12955856,-4.29818535,-9.49764919
5.08902216,-4.25431967,-9.11487579
5.11635637,-4.436553,-10.98307514
5.141119,-4.38971186,-10.63806915
5.11411333,-4.33840752,-10.24047661
5.10570908,-4.29463911,-9.87518501
5.07426786,-4.24930811,-9.49274731
5.06894636,-4.21033192,-9.14527321
5.10345554,-4.38747787,-11.02325153
5.13120031,-4.34222507,-10.68179417
5.12242746,-4.29634905,-10.30534649
5.07623196,-4.24699736,-9.89707851
5.0830102,-4.2071414,-9.55448437
5.07272148,-4.16890097,-9.20183563
5.12315178,-4.34381151,-11.1063385
5.08532333,-4.29092073,-10.68528652
5.07160568,-4.2447772,-10.3046608
5.08172178,-4.20433617,-9.95838833
5.0731225,-4.16372871,-9.6003046
5.07455349,-4.12778759,-9.25876045
5.08014059,-4.29110098,-11.11538315
5.07418871,-4.2436862,-10.73330593
5.06609583,-4.19975042,-10.35879993
5.07637167,-4.16029549,-10.01251793
5.08080482,-4.12279892,-9.66632557
5.06952286,-4.08572245,-9.31286335
5.07392883,-4.24220085,-11.17466927
5.07075548,-4.19739485,-10.79416084
5.07041216,-4.15533257,-10.42639828
5.06910276,-4.11556959,-10.06800461
5.07254314,-4.07923603,-9.72099781
5.06767654,-4.04422474,-9.37249088
5.0750351,-4.19528103,-11.24383163
5.07882023,-4.15249062,-10.87122726
5.07712269,-4.11162519,-10.50068474
5.07642269,-4.07173681,-10.14014435
5.07586575,-4.03598118,-9.78778076
5.07926941,-4.0037961,-9.44797134
5.07474375,-4.14862919,-11.31630611
5.07267904,-4.10565567,-10.93460751
5.07511616,-4.06620359,-10.56840897
5.0743742,-4.02832317,-10.20587635
5.08025312,-3.99362898,-9.85946846
5.14202023,-3.96795416,-9.57818508
5.07936668,-4.06001568,-11.01598263
5.07198,-4.01995373,-10.6363306
5.12775183,-3.98996353,-10.33777237
5.11567545,-3.953825,-9.96820164
5.11435795,-3.92228508,-9.61910152
5.075984,-4.01385736,-11.08801937
5.11550808,-3.97905159,-10.76185894
5.13742352,-3.94591188,-10.42269707
5.14651346,-3.91371918,-10.07472229
5.11355257,-3.87975788,-9.69072342
5.12947416,-3.97261906,-11.23408127
5.12963247,-3.93545055,-10.85919094
5.12130213,-3.89962149,-10.4818182
5.1436286,-3.86951876,-10.14771366
5.14360046,-3.83979416,-9.79840946
5.10334587,-3.92279911,-11.28684807
5.14113426,-3.89022732,-10.95494366
5.13524389,-3.85603809,-10.57816601
5.11115742,-3.8226366,-10.19152927
5.13461828,-3.79550266,-9.86642075
5.11532402,-3.84238195,-11.00768566
5.1460948,-3.81294775,-10.67407417
5.12959576,-3.78043222,-10.29419327
5.11590528,-3.75166368,-9.92606068
5.12499952,-3.79753494,-11.10988235
5.11888599,-3.76536989,-10.73012924
5.1446023,-3.73775101,-10.39544582
5.13603735,-3.70923281,-10.03247738
5.14397907,-3.75234318,-11.22358131
5.12404346,-3.72014713,-10.82501507
5.11789322,-3.69213104,-10.45245743
5.14458561,-3.66649485,-10.12678051
5.10839272,-3.70402193,-11.27404404
5.14352274,-3.67691278,-10.93967247
5.12542582,-3.64862251,-10.5530386
5.11758518,-3.62297392,-10.18591499
5.07881498,-3.65687084,-11.33359241
5.11695004,-3.63034678,-11.00376129
5.14791012,-3.60597372,-10.6722374
5.1327076,-3.58035135,-10.29325104
5.13690805,-3.58713722,-11.12646866
5.11388636,-3.56051254,-10.72856426
5.14376593,-3.53838158,-10.40032673
5.13868046,-3.54157114,-11.23112106
5.13614464,-3.51695156,-10.8528738
5.11692476,-3.49291086,-10.46753502
5.10745716,-3.49477863,-11.29809761
5.13561535,-3.47173643,-10.95592499
5.14155817,-3.45106411,-10.5975399
5.11889601,-3.42691708,-11.0436554
5.13852262,-3.40722179,-10.69700718
5.144207,-3.38407373,-11.1836853
5.11929798,-3.3637743,-10.78115368
5.11438894,-3.33915567,-11.25653553
5.14973736,-3.32118177,-10.92634869
5.12116194,-3.2771492,-11.00508499
5.13710308,-3.23472595,-11.13871288
5.13271952,-3.1912837,-11.25267124
5.08885956,-3.1475625,-11.32100582
5.08890581,-3.10557508,-11.4463768
5.11105824,-4.56153631,-11.34719276
5.12527418,-4.53241491,-11.22815037
5.11584234,-4.49971533,-11.08492374
5.08096361,-4.54514933,-11.3493948
5.1192174,-4.46921444,-10.95870209
5.11327267,-4.5165267,-11.26059437
5.11954355,-4.43719864,-10.8340292
5.13480806,-4.48644972,-11.15951157
5.12174606,-4.40494061,-10.71409416
5.11193562,-4.4497447,-11.00852013
5.14125299,-4.37626028,-10.61747646
5.09844589,-4.49416351,-11.3056488
5.13776302,-4.41913128,-10.91985989
5.10614014,-4.33844328,-10.46261501
5.13674164,-4.46477747,-11.23301888
5.10592365,-4.38080311,-10.76642036
5.10504484,-4.30476332,-10.34834766
5.11764002,-4.42658234,-11.09249592
5.13450956,-4.35086632,-10.68641663
5.0664134,-4.26754808,-10.19617653
5.08946419,-4.4661088,-11.37597179
5.11949825,-4.3904171,-10.97967434
5.1158843,-4.3126955,-10.55393982
5.06297112,-4.2332902,-10.08639717
5.10433578,-4.4311204,-11.28213406
5.14187098,-4.35739374,-10.89669228
5.074471,-4.27287102,-10.40020275
5.07683277,-4.20261049,-9.9999361
5.13397646,-4.39700937,-11.20592976
5.11118221,-4.31595325,-10.75214195
5.07308483,-4.23835325,-10.29614258
5.07614851,-4.16902924,-9.89881229
5.11573458,-4.35780096,-11.07641697
5.07828283,-4.27592659,-10.61107349
5.07375383,-4.20357513,-10.19780064
5.07636786,-4.13536406,-9.80260754
5.09137344,-4.39382982,-11.37235165
5.10733938,-4.31819773,-10.96135712
5.07675934,-4.23941803,-10.50802231
5.07363319,-4.16893959,-10.10062504
5.07446623,-4.10203362,-9.70578003
5.10922623,-4.35749435,-11.29014492
5.073174,-4.27535248,-10.82148838
5.07702112,-4.20374489,-10.41380596
5.07574892,-4.13402796,-10.010149
5.07911539,-4.06982279,-9.62098598
5.10670233,-4.31707048,-11.1851759
5.0722127,-4.23778868,-10.7223835
5.08091879,-4.16752768,-10.32298088
5.08254194,-4.10047913,-9.92697334
5.07222366,-4.03529644,-9.52607536
5.07237673,-4.27323723,-11.04532051
5.07913542,-4.20115328,-10.6370945
5.07149267,-4.13029909,-10.22238827
5.07797384,-4.06459665,-9.83466053
5.08046436,-4.00161266,-9.45076561
5.08485413,-4.31106758,-11.39349174
5.06687546,-4.23336458,-10.94599438
5.07582808,-4.16301203,-10.54247856
5.07753801,-4.09488392,-10.14236832
5.07313728,-4.02980995,-9.74546623
5.11766005,-3.97174025,-9.40578556
5.06771708,-4.26781702,-11.27895737
5.07190084,-4.19503975,-10.86306095
5.07511854,-4.12456131,-10.45652962
5.07884216,-4.05818176,-10.06014729
5.09316492,-3.99541426,-9.68424797
5.12696409,-3.9389596,-9.33538151
5.07020998,-4.22678947,-11.1903429
5.07543516,-4.15591908,-10.77835274
5.06910276,-4.08587646,-10.36443615
5.07689333,-4.02098513,-9.97749805
5.1197238,-3.96314144,-9.63406754
5.14593458,-3.90580082,-9.2784462
5.07015133,-4.18620539,-11.10423946
5.07079315,-4.11503363,-10.69003773
5.06866646,-4.04847097,-10.28455734
5.11124372,-3.98857784,-9.93605232
5.14002609,-3.92979002,-9.5789156
5.12294197,-3.86979485,-9.18138409
5.07534647,-4.0758872,-10.61632824
5.07638407,-4.01089716,-10.21537971
5.1355648,-3.95364523,-9.88725471
5.14020538,-3.89440012,-9.50607872
5.10977602,-3.83439779,-9.09778118
5.06639957,-4.10264444,-10.93672848
5.07380342,-4.03664923,-10.53764057
5.11283302,-3.97622204,-10.18164349
5.15530109,-3.91841173,-9.83624363
5.11664724,-3.85651159,-9.41315651
5.13450861,-3.8025012,-9.05404377
5.06469584,-4.06241941,-10.85805035
5.09154749,-3.9986639,-10.48389912
5.14302444,-3.94046783,-10.14293766
5.13370514,-3.87920094,-9.74395466
5.11924314,-3.82082796,-9.34800243
5.1668725,-3.76948261,-9.01905251
5.07134819,-4.02100515,-10.79205418
5.1209712,-3.96204901,-10.44735336
5.14927721,-3.90323591,-10.08216953
5.11565781,-3.84052467,-9.65915966
5.14207792,-3.78724194,-9.30661964
5.205585,-3.73860502,-8.99411583
5.11061764,-3.98399544,-10.76995945
5.13867188,-3.92313385,-10.39970398
5.11765194,-3.86150026,-9.98252964
5.12977266,-3.80522442,-9.61121464
5.13966179,-3.75136614,-9.24238396
5.25936031,-3.70650434,-8.98469448
5.11905718,-3.94341755,-10.71280193
5.1398406,-3.8836441,-10.33576584
5.11706209,-3.82231188,-9.91993713
5.15565538,-3.77021503,-9.57636547
5.12277079,-3.71465492,-9.1675787
5.31119537,-3.67472124,-8.97563362
5.13486004,-3.90281248,-10.66750717
5.12470293,-3.84155464,-10.25851059
5.138381,-3.78599739,-9.88387108
5.14357138,-3.73178005,-9.50674534
5.11156988,-3.67713976,-9.10188103
5.1359849,-3.86239386,-10.60966396
5.11306906,-3.8020072,-10.18675804
5.1435318,-3.74907494,-9.83348083
5.11452866,-3.6928792,-9.42396832
5.12304831,-3.64336157,-9.06054878
5.12288094,-3.82104826,-10.53713226
5.12887621,-3.76354313,-10.15065002
5.13847113,-3.70964336,-9.77475452
5.11846209,-3.65620661,-9.37787533
5.15640879,-3.60838461,-9.04364777
5.10487413,-3.7774272,-10.46241188
5.14073038,-3.72364998,-10.11118031
5.12008572,-3.66920137,-9.70626259
5.13300896,-3.62000179,-9.34407139
5.1739397,-3.57376909,-9.01339054
5.11711121,-3.73649597,-10.42590332
5.15116549,-3.68502808,-10.07402515
5.11283827,-3.63017941,-9.65201283
5.14315367,-3.5834794,-9.30904198
5.20553875,-3.53909254,-8.99783325
5.13456821,-3.696877,-10.39964294
5.11927557,-3.6435914,-9.99477673
5.12750006,-3.59403276,-9.62429428
5.15250683,-3.54709911,-9.27517414
5.24468374,-3.50437355,-8.99512577
5.14425611,-3.65638924,-10.36564445
5.12171459,-3.60318756,-9.95499611
5.13820839,-3.55645609,-9.59320831
5.13467216,-3.50874758,-9.21881771
5.27260351,-3.46931267,-8.98227215
5.1391058,-3.61509991,-10.31910896
5.118577,-3.56364679,-9.91218758
5.15363789,-3.51823425,-9.57141304
5.1175375,-3.47133255,-9.16539955
5.29117441,-3.43366671,-8.96401119
5.12160254,-3.5726409,-10.26261997
5.12811184,-3.5243125,-9.88738918
5.14167213,-3.4790616,-9.52514935
5.11368275,-3.43399906,-9.12784481
5.34644318,-3.39862776,-8.98171902
5.10631466,-3.53090858,-10.21183968
5.13667536,-3.48513746,-9.86277199
5.13404417,-3.44028187,-9.48521328
5.11549664,-3.39686632,-9.09840202
5.11358929,-3.48991776,-10.18742847
5.14747572,-3.44568586,-9.84485626
5.13475037,-3.40131664,-9.45695877
5.12316132,-3.35991573,-9.07805729
5.12328053,-3.44863462,-10.17070293
5.1493535,-3.40554094,-9.81840324
5.12111855,-3.36350727,-9.41712856
5.13173103,-3.32288218,-9.06262875
5.1268754,-3.40725946,-10.14899731
5.14452791,-3.36542988,-9.78911304
5.11947775,-3.3239646,-9.39336491
5.1379962,-3.28619909,-9.04559517
5.14180708,-3.36628437,-10.14351559
5.13681078,-3.32479191,-9.76136684
5.12118149,-3.28597736,-9.37511349
5.15279913,-3.24831104,-9.04222393
5.14057159,-3.32469988,-10.12371159
5.13343,-3.2845459,-9.7399435
5.12593174,-3.24656725,-9.3633976
5.16247511,-3.21017218,-9.03369141
5.14251995,-3.28368425,-10.10943222
5.12844992,-3.24558926,-9.71985626
5.12377548,-3.20821142,-9.34686756
5.16233063,-3.17356491,-9.02089024
5.14819717,-3.24318647,-10.10362816
5.11890602,-3.20532703,-9.69855118
5.13126373,-3.17048264,-9.34281254
5.17017984,-3.13580227,-9.01880074
5.14630747,-3.20079851,-10.0920639
5.12246132,-3.16516399,-9.69212627
5.13039303,-3.13100624,-9.3341608
5.17854929,-3.09899282,-9.01866627
5.14778328,-3.15896177,-10.08701134
5.11930943,-3.12503481,-9.682868
5.13650322,-3.09254074,-9.33441257
5.18120575,-3.06105518,-9.01651096
5.1463275,-3.11860657,-10.08150387
5.11473942,-3.08617735,-9.67592525
5.13060188,-3.05387545,-9.32568645
5.1844058,-3.02306652,-9.01730728
5.15074253,-3.07743073,-10.08609009
5.12412167,-3.04426432,-9.68568707
5.13569689,-3.01463985,-9.33221436
5.18568468,-2.98439169,-9.01946163
5.14149237,-3.03427315,-10.07993698
5.12047672,-3.00431871,-9.6846571
5.13751984,-2.97591496,-9.33731842
5.18536425,-2.94700575,-9.02294922
5.15098953,-2.99241829,-10.09577751
5.12021923,-2.96392059,-9.69113255
5.12999201,-2.93660545,-9.3370142
5.17321014,-2.90940285,-9.0184412
5.15375853,-2.95160151,-10.10779095
5.13225079,-2.92476749,-9.71265602
5.13077784,-2.8981142,-9.34739876
5.17284393,-2.87108755,-9.02802277
5.1479907,-2.9090538,-10.11422634
5.12797403,-2.88301373,-9.72086525
5.125669,-2.85851097,-9.35477924
5.15832138,-2.83391142,-9.0270071
5.14805031,-2.86769247,-10.12876225
5.13880873,-2.84310722,-9.74767971
5.12374496,-2.81947613,-9.36768627
5.16319656,-2.79590464,-9.0478344
5.14106464,-2.82539606,-10.13949299
5.150208,-2.80214691,-9.77844143
5.11394215,-2.78165483,-9.3759613
5.14842749,-2.75882006,-9.05093288
5.13249969,-2.78338289,-10.1525526
5.15304756,-2.76045895,-9.80262947
5.12224817,-2.74118805,-9.40628338
5.1380372,-2.72012091,-9.06235218
5.1246357,-2.74230719,-10.1685524
5.15828276,-2.71948147,-9.83350754
5.13109779,-2.70067072,-9.43955517
5.12622786,-2.68269253,-9.07608795
5.11997986,-2.70079565,-10.19107056
5.15211344,-2.67817926,-9.85325813
5.14200258,-2.65989304,-9.47854614
5.12320089,-2.64396667,-9.09937096
5.36638117,-2.6122241,-8.97274685
5.12101507,-2.65847969,-10.22269917
5.14355421,-2.63830805,-9.8755064
5.15476084,-2.61987686,-9.52127838
5.12390327,-2.60575867,-9.13113022
5.29536629,-2.57865858,-8.93642235
5.12392473,-2.6159215,-10.25906181
5.13138151,-2.59797668,-9.89535999
5.15566492,-2.58064795,-9.55501461
5.12858009,-2.56797695,-9.16724968
5.31908083,-2.54007959,-8.99241734
5.14598465,-2.57262373,-10.32138157
5.12160397,-2.55835533,-9.92190552
5.1534977,-2.54090881,-9.58930969
5.15287971,-2.52733946,-9.22818565
5.28634214,-2.50389957,-8.9978199
5.14921188,-2.52910233,-10.36580372
5.12630033,-2.51663256,-9.96710587
5.12920237,-2.50246096,-9.60328865
5.16266012,-2.48787498,-9.27655792
5.24093866,-2.46965313,-8.99440002
5.14571142,-2.48661947,-10.40639877
5.1393528,-2.47372055,-10.02498722
5.11972046,-2.46288109,-9.63689995
5.15812397,-2.44856215,-9.31434631
5.21192646,-2.43399096,-9.00827885
5.13362885,-2.44441271,-10.43942451
5.1580739,-2.43100834,-10.09098148
5.1220274,-2.42258883,-9.68459892
5.13959074,-2.41137648,-9.34152603
5.17754412,-2.39816999,-9.02110863
5.12127972,-2.40330267,-10.47556877
5.15466595,-2.3895874,-10.13666153
5.14872074,-2.37972498,-9.76030922
5.12638664,-2.37341928,-9.37584782
5.1549263,-2.36264038,-9.04703331
5.13006496,-2.35912704,-10.5392971
5.13922358,-2.34897041,-10.17236519
5.16258907,-2.33780766,-9.82720947
5.13490486,-2.33327675,-9.43460846
5.13269234,-2.32607365,-9.07592106
5.14487982,-2.31511784,-10.61310577
5.12732935,-2.30888844,-10.21556187
5.15216494,-2.29952431,-9.8711834
5.15557289,-2.29238749,-9.50942898
5.12967539,-2.28869247,-9.12566471
5.34165239,-2.26163816,-8.97130394
5.14253473,-2.27166271,-10.67177582
5.12990713,-2.26670456,-10.27741623
5.13184738,-2.26070642,-9.90679836
5.16422701,-2.25129938,-9.5752697
5.14095116,-2.24922657,-9.19308567
5.30783892,-2.22690392,-8.99726677
5.13273811,-2.22931337,-10.72268295
5.1532588,-2.22148943,-10.36488628
5.1364603,-2.21926641,-9.97337627
5.14131737,-2.21493244,-9.61140156
5.16383314,-2.20906496,-9.27361202
5.24740505,-2.19715881,-8.99770546
5.11752462,-2.18881273,-10.77054882
5.14832115,-2.18048573,-10.42407608
5.14904547,-2.17767525,-10.04966927
5.12640095,-2.17741036,-9.65824795
5.15422583,-2.17177629,-9.32660294
5.20456028,-2.16381407,-9.01823425
5.14458179,-2.14218235,-10.87358665
5.12274504,-2.14156723,-10.46472549
5.1562562,-2.13592529,-10.12491417
5.13986969,-2.13673878,-9.7384634
5.12910652,-2.13682294,-9.36621857
5.16772604,-2.13163948,-9.04784775
5.15142965,-2.09752941,-10.95495033
5.14196873,-2.09707975,-10.55703449
5.13732147,-2.09704781,-10.17349339
5.16744995,-2.09399891,-9.83536911
5.13431215,-2.09840298,-9.43883896
5.13491011,-2.09788322,-9.08381653
5.12429714,-2.05789113,-10.99892426
5.1599741,-2.05284333,-10.6536417
5.13204765,-2.05721474,-10.24089909
5.15206146,-2.05565643,-9.89144039
5.16074085,-2.05583906,-9.53494167
5.13282442,-2.06155539,-9.14866161
5.13293123,-2.01407385,-11.08912563
5.14133406,-2.01400709,-10.70928669
5.15305853,-2.01356316,-10.34204865
5.13373947,-2.01879454,-9.94705963
5.15596771,-2.01796341,-9.60330772
5.16243792,-2.01955986,-9.25029087
5.14978409,-1.96707618,-11.19301605
5.125741,-1.97374821,-10.77146435
5.1540184,-1.97287548,-10.42151356
5.15188265,-1.97654879,-10.04265881
5.12611151,-1.98386323,-9.64990902
5.15376139,-1.98332393,-9.31838512
5.1303091,-1.92745304,-11.2559185
5.15124702,-1.92853975,-10.88701439
5.12917233,-1.93603098,-10.47528267
5.16020584,-1.935835,-10.13398838
5.14132118,-1.94309878,-9.74505424
5.12672901,-1.94982588,-9.36854458
5.1375227,-1.88197041,-11.35652447
5.15024281,-1.88623726,-10.97392941
5.15752268,-1.89042032,-10.59538555
5.1360836,-1.89892328,-10.1916914
5.15707493,-1.90228379,-9.84315109
5.14625502,-1.91045785,-9.4690218
5.09090948,-1.84638274,-11.39194584
5.08987904,-1.85268414,-10.99462795
5.10111237,-1.85829747,-10.61944866
5.1378603,-1.8592304,-10.28017426
5.13496399,-1.86711991,-9.90458298
5.16483116,-1.87024474,-9.57067776
5.09191608,-1.80289161,-11.49067593
5.09429741,-1.81067312,-11.09377384
5.08742142,-1.81893253,-10.69654751
5.09644556,-1.82595921,-10.32484913
5.09370852,-1.83483589,-9.9492445
5.09810972,-1.84277403,-9.59061432
5.09185028,-1.76770926,-11.19009686
5.08971739,-1.77725625,-10.79506969
5.08993721,-1.78658497,-10.41282845
5.09309435,-1.79657364,-10.04022694
5.09446907,-1.80493057,-9.67605972
5.0887723,-1.72587478,-11.28757191
5.09388924,-1.73533726,-10.89832878
5.09503603,-1.7465148,-10.51391411
5.09686136,-1.75669611,-10.13952637
5.08922911,-1.7683754,-9.76283646
5.08829403,-1.68372953,-11.393713
5.09246302,-1.69528425,-10.99756432
5.09821606,-1.70575857,-10.61635971
5.09983921,-1.71696079,-10.23999119
5.10058451,-1.72938371,-9.86889172
5.09047937,-1.64119959,-11.50342941
5.08832693,-1.65468764,-11.09932232
5.09216213,-1.66741288,-10.71138954
5.09489441,-1.68044686,-10.33383465
5.09660959,-1.692711,-9.96255112
5.09119463,-1.61409807,-11.21098042
5.09864187,-1.6272831,-10.82544136
5.09913683,-1.64059389,-10.44118214
5.09451056,-1.6557951,-10.06094837
5.1039505,-1.57110608,-11.33908081
5.09654093,-1.58743024,-10.93192291
5.0893383,-1.60487497,-10.53593063
5.09579945,-1.61842704,-10.16684914
5.14456701,-1.52107453,-11.5066843
5.14783859,-1.53779089,-11.10671806
5.10801077,-1.5619911,-10.66802883
5.09480715,-1.58040643,-10.27214241
5.16070843,-1.49485719,-11.24090099
5.14169979,-1.51695514,-10.82173634
5.14416552,-1.53402185,-10.43921375
5.12824535,-1.46262026,-11.32157326
5.15969706,-1.47427166,-10.96108341
5.14780521,-1.49643517,-10.55789757
5.14123106,-1.41974461,-11.46183777
5.13120937,-1.44246113,-11.04611397
5.15796852,-1.45589423,-10.68651867
5.16230345,-1.3969394,-11.20842648
5.13401985,-1.42345572,-10.77985764
5.13546515,-1.36397374,-11.30330467
5.16125393,-1.38050294,-10.93580437
5.14791346,-1.32328951,-11.44980717
5.13857317,-1.34794652,-11.03602695
5.1626482,-1.30556238,-11.19663143
5.13010311,-1.27654564,-11.29059315
5.09008598,-1.24963784,-11.37579727
5.09456778,-2.74481583,-11.42900085
5.1194334,-2.70613909,-11.33122635
5.14292288,-2.66672516,-11.23775959
5.07207298,-2.68194771,-11.45748711
5.12987566,-2.63062906,-11.1002264
5.12051105,-2.63890839,-11.39597893
5.12768698,-2.59197187,-10.97895432
5.12347221,-2.59949732,-11.28086567
5.14315987,-2.55178022,-10.8818655
5.15039206,-2.55762291,-11.19689655
5.11803246,-2.51555967,-10.74044895
5.11627913,-2.56556988,-11.47075558
5.12492514,-2.520432,-11.05450821
5.15604401,-2.47417736,-10.6768198
5.1404891,-2.52315235,-11.38930893
5.14452982,-2.47871733,-10.96985435
5.13087273,-2.43702745,-10.54149723
5.13181925,-2.48250389,-11.26817894
5.14223146,-2.43920517,-10.85977364
5.13264179,-2.39900398,-10.44086361
5.15029478,-2.43996096,-11.18371677
5.12559509,-2.40084982,-10.73811436
5.15121031,-2.35752344,-10.36148739
5.09438467,-2.44509172,-11.43713188
5.12383366,-2.40099621,-11.0486021
5.15048409,-2.3574357,-10.66669559
5.12226963,-2.32106781,-10.23297119
5.12710905,-2.3995347,-11.37643814
5.14793301,-2.35772419,-10.97834682
5.13166046,-2.31948996,-10.54951286
5.14508867,-2.28105879,-10.16402435
5.12514925,-2.35805655,-11.27541637
5.14572763,-2.31633759,-10.8814373
5.1311264,-2.27888107,-10.45536041
5.15688515,-2.23968697,-10.08691216
5.14414454,-2.31353045,-11.20099354
5.12125444,-2.27718782,-10.7571373
5.15566015,-2.23764181,-10.39116001
5.12609768,-2.2046113,-9.96384335
5.1143117,-2.31292629,-11.49425793
5.13299417,-2.27245474,-11.09454918
5.1484952,-2.23355532,-10.69850063
5.13503075,-2.19906759,-10.2814188
5.1393199,-2.16410875,-9.89360428
5.14337778,-2.26598072,-11.43726254
5.1288681,-2.23038244,-10.99899673
5.15554905,-2.19089603,-10.61919022
5.12901306,-2.16038322,-10.18932533
5.1689558,-2.12118673,-9.84165668
5.12333012,-2.22320747,-11.32327366
5.1525383,-2.1842823,-10.93996048
5.12536812,-2.15275764,-10.50205994
5.15790415,-2.11559534,-10.14053726
5.14169312,-2.08471346,-9.73317146
5.1359129,-2.17875671,-11.25308323
5.13477612,-2.14430237,-10.83576679
5.14147806,-2.10984588,-10.43836403
5.14917707,-2.07636738,-10.0509634
5.13136578,-2.04677343,-9.64493275
5.08483076,-2.17528534,-11.52885342
5.15269756,-2.13270712,-11.19022751
5.12884474,-2.10160208,-10.74765778
5.1482172,-2.06735277,-10.36826324
5.13275337,-2.0383358,-9.95774364
5.15554142,-2.00477123,-9.59604168
5.13173389,-2.12385297,-11.50510883
5.13098097,-2.09129715,-11.08267021
5.14971828,-2.05603695,-10.69524193
5.14023638,-2.02705288,-10.2836237
5.14667559,-1.99583328,-9.89852715
5.15047646,-1.96613586,-9.52004337
5.14831352,-2.07588744,-11.44835949
5.12597561,-2.04750919,-11.00047016
5.16065645,-2.01194525,-10.63247871
5.12534714,-1.98780835,-10.19416809
5.16132069,-1.95326364,-9.84324265
5.12455225,-1.93161047,-9.42253017
5.12849426,-2.03323078,-11.34653378
5.15088844,-1.99935853,-10.95540714
5.12903309,-1.97314584,-10.52475548
5.15493774,-1.94102049,-10.15640068
5.15165186,-1.91533148,-9.76403618
5.13513374,-1.88969338,-9.36698723
5.12768841,-1.98784387,-11.27167034
5.15744543,-1.95394552,-10.89240837
5.12649584,-1.93213415,-10.45333481
5.16287708,-1.89848495,-10.09828377
5.12615156,-1.87776053,-9.67147732
5.08999777,-1.85812283,-9.25780487
5.14837933,-1.93935847,-11.22635841
5.12652445,-1.91608274,-10.78762245
5.15568018,-1.88445079,-10.4196949
5.10472918,-1.86573637,-9.97011852
5.09178257,-1.84256625,-9.57347107
5.09421396,-1.8172102,-9.2003994
5.15204525,-1.89341831,-11.16490173
5.10499334,-1.87386024,-10.69832134
5.08956003,-1.85185421,-10.28181362
5.09006882,-1.82660806,-9.89282608
5.0889101,-1.8027252,-9.51027012
5.10046625,-1.77704167,-9.14771557
5.08282757,-1.85917473,-11.0173912
5.08716917,-1.83315957,-10.61649895
5.09169865,-1.80926847,-10.22577858
5.09654427,-1.78441489,-9.84311962
5.08978701,-1.762398,-9.45653915
5.11586189,-1.73554194,-9.10655022
5.0774641,-1.81462395,-10.95050144
5.08551264,-1.79013073,-10.55708694
5.09038162,-1.76721013,-10.16733646
5.09859419,-1.742908,-9.79118633
5.09845686,-1.72193611,-9.41154289
5.13961315,-1.69285262,-9.07806301
5.08747959,-1.76788783,-10.90718269
5.08972836,-1.74628127,-10.50776863
5.09229374,-1.72371221,-10.11641407
5.09585762,-1.70212102,-9.73506069
5.09111452,-1.68185246,-9.35221004
5.16074276,-1.64854085,-9.04799652
5.08622837,-1.72281742,-10.85172939
5.09263229,-1.70162046,-10.45765877
5.09109306,-1.68171179,-10.06405449
5.10362053,-1.6588062,-9.69323444
5.09608173,-1.64200962,-9.30892277
5.19347858,-1.60353327,-9.03103733
5.08224487,-1.6782074,-10.79780197
5.09531164,-1.65604734,-10.41265965
5.08564806,-1.64038122,-10.01045227
5.09273672,-1.62032878,-9.63559723
5.09860945,-1.60052717,-9.26503754
5.22757006,-1.55732906,-9.01685715
5.0885582,-1.63209021,-10.75619411
5.08837557,-1.61392212,-10.3572855
5.09930277,-1.59524155,-9.97971153
5.0981307,-1.5774405,-9.59726238
5.16536951,-1.54849637,-9.28746128
5.26466465,-1.51171005,-9.00722122
5.09214163,-1.58643317,-10.71611118
5.14273834,-1.55979228,-10.37585258
5.13607788,-1.54471147,-9.97818565
5.15455055,-1.52598798,-9.61346245
5.15096617,-1.51062131,-9.23251629
5.29755926,-1.46475279,-8.99833393
5.13198662,-1.53347623,-10.72211361
5.15600824,-1.51275349,-10.35023403
5.12151432,-1.50584924,-9.92325306
5.16965246,-1.48071384,-9.59059048
5.14073992,-1.47215152,-9.18390942
5.31909847,-1.42054033,-8.98141384
5.15081024,-1.4836421,-10.70661545
5.15178537,-1.47037613,-10.30961037
5.13948441,-1.45916927,-9.90593147
5.17455244,-1.43800914,-9.56048584
5.13042641,-1.43476057,-9.13940716
5.36725616,-1.37133908,-8.99002075
5.15620136,-1.43781698,-10.6763649
5.14277458,-1.42871881,-10.2647934
5.15470171,-1.41395342,-9.88913822
5.15680981,-1.4007194,-9.50921535
5.13257313,-1.39352,-9.10983276
5.15640116,-1.39181638,-10.64605141
5.13584089,-1.38579774,-10.2266922
5.15921593,-1.369349,-9.86415672
5.14705992,-1.36227429,-9.46865749
5.14384508,-1.35195184,-9.0907793
5.15463781,-1.34713757,-10.61510468
5.13656092,-1.34075058,-10.19833374
5.16176891,-1.32606685,-9.83854198
5.1365633,-1.32196343,-9.43125629
5.15418816,-1.30853486,-9.07389832
5.14926147,-1.30199933,-10.58176327
5.14100981,-1.29622126,-10.17844963
5.16504383,-1.28271759,-9.8168602
5.14149141,-1.28039551,-9.41133499
5.16541433,-1.2660377,-9.06093788
5.12921333,-1.26212442,-10.53697586
5.14965773,-1.2500937,-10.16590023
5.15811586,-1.24193752,-9.78794575
5.13607597,-1.23940599,-9.38519001
5.17239666,-1.22421002,-9.04673481
5.13196564,-1.2148844,-10.52142525
5.15884686,-1.20391548,-10.15630341
5.15058041,-1.2012825,-9.76118088
5.13633156,-1.19861627,-9.36715794
5.19048595,-1.17972934,-9.0446806
5.12463284,-1.17320883,-10.4966383
5.16065788,-1.16090846,-10.14303207
5.14243603,-1.16075313,-9.73656368
5.15169001,-1.15459561,-9.36663246
5.20121813,-1.13741565,-9.03995037
5.12632704,-1.1272068,-10.48537064
5.16634846,-1.11432886,-10.1371212
5.14499044,-1.11667514,-9.72822189
5.16131353,-1.11045003,-9.36308956
5.20174742,-1.09767127,-9.02798843
5.12759352,-1.08131361,-10.47723579
5.16545153,-1.07077801,-10.12637329
5.13811302,-1.07602799,-9.71048832
5.15628862,-1.07056367,-9.34909534
5.22051525,-1.05219412,-9.03596115
5.13305902,-1.03382158,-10.47643566
5.16757965,-1.02680862,-10.12116337
5.13825703,-1.03438449,-9.70364857
5.15891552,-1.0285517,-9.34484386
5.22330284,-1.01116931,-9.03169632
5.13841629,-0.98841244,-10.47874069
5.16200972,-0.98403579,-10.11230469
5.1424408,-0.9901548,-9.70415688
5.16359901,-0.98627973,-9.34631157
5.21606731,-0.97269672,-9.02118397
5.1357336,-0.94322979,-10.47642899
5.17039299,-0.93820804,-10.12014866
5.13791275,-0.94928938,-9.69920635
5.16767311,-0.94413334,-9.34992504
5.22856379,-0.929286,-9.03238106
5.13109064,-0.89936924,-10.47348309
5.1672616,-0.8941381,-10.11997128
5.13889456,-0.90763646,-9.70238018
5.16481876,-0.90404522,-9.34773254
5.22968435,-0.88962436,-9.03454781
5.13464165,-0.85333228,-10.48322773
5.16749668,-0.85061967,-10.12630272
5.14640141,-0.86302972,-9.71549225
5.16171646,-0.86404926,-9.34965324
5.21847868,-0.85286671,-9.02886105
5.13146734,-0.8083334,-10.48914528
5.16811609,-0.80606347,-10.13559723
5.15214729,-0.81872386,-9.72994995
5.15455198,-0.82470608,-9.3513155
5.21377611,-0.81415892,-9.03211594
5.13168001,-0.76288211,-10.50256538
5.1644907,-0.76217705,-10.14364815
5.15134525,-0.77543956,-9.74155998
5.15503979,-0.78323668,-9.36271954
5.21094847,-0.77520823,-9.04010582
5.1385746,-0.71546382,-10.52590942
5.16190958,-0.72019756,-10.15560818
5.14991474,-0.73328424,-9.7543211
5.1479907,-0.74395132,-9.37046337
5.19809771,-0.73880988,-9.04184723
5.14138556,-0.66970181,-10.54800129
5.15280008,-0.67823523,-10.16571808
5.15916157,-0.68858415,-9.78236389
5.15109825,-0.70116794,-9.39153194
5.18811464,-0.70100546,-9.04913807
5.15108156,-0.62095261,-10.58199215
5.14884186,-0.63551933,-10.18198681
5.1687932,-0.6428467,-9.81336975
5.14429951,-0.66393209,-9.40434933
5.18398142,-0.66338444,-9.06552601
5.16034842,-0.57231164,-10.61911488
5.1398263,-0.59461921,-10.19718266
5.17567253,-0.59857333,-9.84490585
5.14752293,-0.6212067,-9.43150043
5.16716146,-0.62870055,-9.07209396
5.1628685,-0.52571273,-10.65141487
5.14115143,-0.5502038,-10.22668839
5.17234898,-0.55686903,-9.86921024
5.15262127,-0.57823861,-9.46338654
5.14991474,-0.59412569,-9.08179569
5.15996981,-0.48096293,-10.6806736
5.14703655,-0.50415659,-10.26549721
5.15995169,-0.5185622,-9.88609028
5.16803551,-0.53275895,-9.50858688
5.14724922,-0.55536628,-9.10704517
5.15912819,-0.43595359,-10.71565151
5.15827274,-0.45633492,-10.31244087
5.148458,-0.48017126,-9.90788746
5.16726732,-0.49275219,-9.5395689
5.14467764,-0.51766866,-9.13737965
5.14539766,-0.39490265,-10.73883152
5.17289686,-0.40806079,-10.36688995
5.14098454,-0.44019896,-9.9360342
5.17683887,-0.44923079,-9.58485794
5.15057087,-0.47669894,-9.17729092
5.33090734,-0.43685877,-8.96954823
5.1408329,-0.35151604,-10.77451992
5.16849041,-0.3656615,-10.40256691
5.14053345,-0.39922965,-9.97507668
5.16792297,-0.41153377,-9.61432743
5.16183424,-0.43295133,-9.22633457
5.2998271,-0.40753826,-8.97781372
5.12259007,-0.31223047,-10.79957581
5.16598272,-0.32201505,-10.44397736
5.1633749,-0.34777522,-10.04321289
5.14783287,-0.37656459,-9.63674736
5.176126,-0.38878468,-9.28091621
5.28615427,-0.37463504,-9.00519085
5.08030796,-0.28156421,-10.79869366
5.14379358,-0.28637722,-10.46677017
5.17303705,-0.30237865,-10.10167789
5.15478849,-0.33356148,-9.68964672
5.17841053,-0.3494963,-9.32761765
5.26266193,-0.34326321,-9.02829647
5.15171766,-0.24027771,-10.52757359
5.16597366,-0.26250583,-10.14297199
5.15517473,-0.29258305,-9.73870277
5.17049217,-0.31277728,-9.36708927
5.22066069,-0.31872031,-9.03458405
5.16234779,-0.19178553,-10.59393883
5.15500593,-0.22427252,-10.18399334
5.17052794,-0.24638273,-9.80627441
5.14194489,-0.28322142,-9.38912392
5.19030905,-0.29147339,-9.0559721
5.16790199,-0.14611295,-10.65823936
5.14690399,-0.18463336,-10.23056889
5.17583752,-0.20373863,-9.86660194
5.15086794,-0.24103704,-9.45184422
5.16627979,-0.26229328,-9.08531666
5.16113186,-0.10334428,-10.71468449
5.16546297,-0.13506056,-10.31274605
5.1605382,-0.1672539,-9.91048527
5.16748667,-0.19471888,-9.52629852
5.14051104,-0.23241019,-9.11700153
5.13028049,-0.07120313,-10.74319744
5.17575979,-0.08773867,-10.3873291
5.14327621,-0.132091,-9.9537344
5.17902851,-0.15122038,-9.59868431
5.15878057,-0.1878738,-9.19321728
5.09669781,-0.03952208,-10.77323818
5.16788721,-0.048216,-10.4460659
5.16402864,-0.08424931,-10.04062271
5.15899324,-0.11852557,-9.641469
5.18373251,-0.14137058,-9.279356
5.15076303,-0.0121071,-10.4963932
5.18552446,-0.03533652,-10.13244152
5.16006517,-0.07869227,-9.70974255
5.17268419,-0.10635715,-9.33366871
5.15914536,0.0337594,-10.58152199
5.15948534,-0.00361235,-10.17533207
5.17842674,-0.03228098,-9.79912663
5.15441418,-0.07550226,-9.38429642
5.16174984,0.07774311,-10.66164398
5.15606737,0.03545967,-10.24647617
5.17728949,0.006139,-9.87088299
5.15422487,-0.03792743,-9.45487309
5.12257385,0.10541689,-10.69685078
5.14607954,0.07250679,-10.31378078
5.15418816,0.03720267,-9.92341328
5.17748642,0.00914568,-9.55453205
5.06198215,0.12284881,-10.70769787
5.1366334,0.10960427,-10.3840332
5.13740873,0.07020025,-9.98389912
5.16682673,0.04305555,-9.62099743
5.10771036,0.13971454,-10.43765068
5.14193821,0.111357,-10.07185268
5.14860535,0.07377738,-9.68280506
5.11965275,0.14142609,-10.13339901
5.14668274,0.10991433,-9.76490974
5.07403326,0.16193929,-10.17194748
5.11548567,0.13559872,-9.81902313
5.09579992,0.16597831,-9.88924026
5.07230806,-0.20228924,-10.83643532
5.0907259,-0.14492893,-10.78122234
5.12449169,-0.08130881,-10.74748611
5.1582818,-0.01668485,-10.71474266
5.17150784,0.04085107,-10.65946293
5.13731241,0.07820308,-10.55325413
5.12063169,0.12415737,-10.47113228
5.07445383,0.15763503,-10.35803986
5.07152367,-5.97934818,-9.11910439
5.05430126,-6.01070547,-9.45737267
5.08065987,-5.94046402,-9.12489414
5.07507467,-5.97519922,-9.47836971
5.0893898,-5.90068388,-9.1348114
5.06431818,-6.00875521,-9.83277416
5.10284901,-5.93969965,-9.50926304
5.07668018,-5.85297537,-9.12514687
5.10388708,-5.97762108,-9.87886143
5.10915947,-5.89727736,-9.51958084
5.07987738,-5.81205034,-9.13402939
5.0641942,-6.00342512,-10.21201801
5.10811901,-5.93352556,-9.89055061
5.11142969,-5.8545022,-9.53063393
5.07704115,-5.76802206,-9.14091778
5.07974339,-5.96073341,-10.23893547
5.10164213,-5.88496304,-9.89294529
5.12067938,-5.81273937,-9.55059242
5.085639,-5.72839212,-9.16102982
5.09052753,-5.91775703,-10.26265717
5.09903049,-5.83890915,-9.90280628
5.12536573,-5.76967144,-9.56933212
5.10121822,-5.68977356,-9.19004726
5.11717319,-5.96536064,-10.68364143
5.09887075,-5.87314034,-10.28578091
5.09415865,-5.79119968,-9.91305637
5.12266779,-5.72469711,-9.58329582
5.10414505,-5.64700699,-9.21013355
5.06894636,-5.98863792,-11.02849293
5.10753012,-5.91228962,-10.68959332
5.10547686,-5.82782173,-10.31124973
5.09132195,-5.74423456,-9.92802906
5.11621714,-5.67727232,-9.59587479
5.11342239,-5.60638094,-9.24027348
5.07807732,-5.94094229,-11.05853844
5.09910917,-5.86110735,-10.70043564
5.11429644,-5.78323078,-10.34242439
5.08857822,-5.69833136,-9.94808769
5.11064959,-5.63076687,-9.61237431
5.12473202,-5.56649923,-9.2751379
5.08730125,-5.89431,-11.09367085
5.09387445,-5.8104949,-10.71680546
5.12347841,-5.73860598,-10.37556362
5.09247351,-5.6524682,-9.97607708
5.10431337,-5.5833993,-9.63103676
5.12287092,-5.52151442,-9.29911709
5.09390593,-5.84605503,-11.12722397
5.08540916,-5.75838423,-10.73374176
5.11702633,-5.68824291,-10.39622879
5.10554409,-5.6093483,-10.01768112
5.09472609,-5.53553915,-9.6492691
5.11195326,-5.47384739,-9.31556511
5.10123205,-5.7977314,-11.16471004
5.08028889,-5.70782948,-10.75619125
5.1096034,-5.63804007,-10.41707325
5.11500025,-5.56576872,-10.05689049
5.0907855,-5.48888159,-9.67461872
5.10175514,-5.42611265,-9.33594513
5.10196209,-5.74735975,-11.19625664
5.0903306,-5.66219187,-10.80034161
5.10008049,-5.58716726,-10.43829536
5.11578131,-5.51846695,-10.0915308
5.09717178,-5.44479179,-9.71438408
5.10204315,-5.38193035,-9.37072945
5.09815121,-5.69467878,-11.22758198
5.09777212,-5.61392689,-10.84390926
5.08599472,-5.53499031,-10.45829773
5.12406158,-5.4731307,-10.13702869
5.11519241,-5.40407991,-9.76935482
5.08931971,-5.33363485,-9.39461613
5.07328415,-5.63597012,-11.23420238
5.11059284,-5.56796169,-10.89771461
5.09149504,-5.48704386,-10.50222778
5.1067028,-5.42146301,-10.15560818
5.12004089,-5.35826683,-9.81344223
5.09448671,-5.28979588,-9.43867874
5.07390356,-5.58474445,-11.27693939
5.11568785,-5.51912022,-10.94577122
5.10386658,-5.4421916,-10.5581665
5.09835815,-5.37155247,-10.18781471
5.1272645,-5.3141675,-9.86322212
5.11508465,-5.24977684,-9.50132275
5.06695652,-5.53162956,-11.31392002
5.1100502,-5.46681547,-10.98353958
5.12357998,-5.39831686,-10.62497616
5.0932188,-5.32120514,-10.22654152
5.11020136,-5.26254225,-9.88886738
5.12549305,-5.20624685,-9.55662823
5.07315683,-5.48168182,-11.3688736
5.08272648,-5.4096117,-10.997756
5.11783266,-5.34809542,-10.66585159
5.09773445,-5.27656269,-10.27884579
5.09286928,-5.21201277,-9.9176321
5.11776209,-5.15835094,-9.59587383
5.08698606,-5.35998297,-11.05307198
5.10286856,-5.29420185,-10.69920635
5.12567234,-5.23458481,-10.36044407
5.08931684,-5.1635232,-9.96321678
5.10131311,-5.10874128,-9.62855911
5.10193253,-5.31288671,-11.12477016
5.08578205,-5.2406435,-10.73194313
5.1210103,-5.18426323,-10.40722084
5.11264849,-5.12224817,-10.04160881
5.10047674,-5.06293631,-9.68080997
5.10947227,-5.26488829,-11.19069481
5.0946312,-5.19345665,-10.79865742
5.10135317,-5.13215208,-10.44147015
5.12145472,-5.07706976,-10.10633278
5.11156368,-5.01840973,-9.74614239
5.10646009,-5.21341085,-11.24731731
5.10684681,-5.14682102,-10.87188339
5.09811783,-5.08269978,-10.49511623
5.11986923,-5.02939796,-10.16173935
5.12936354,-4.97598934,-9.82349777
5.08440351,-5.15765238,-11.28296375
5.11563063,-5.09970856,-10.94369602
5.11121655,-5.03698349,-10.57226181
5.08656931,-4.97430182,-10.18624306
5.12353373,-4.92898798,-9.87766361
5.0841713,-5.10584831,-11.34923744
5.09578943,-5.04467773,-10.98504829
5.12336636,-4.99042273,-10.65058422
5.10547638,-4.93077755,-10.27049351
5.09737301,-4.87589025,-9.91105938
5.08480024,-5.05596685,-11.418437
5.08995962,-4.99474001,-11.04729939
5.11584282,-4.94071054,-10.70908451
5.12395334,-4.88736153,-10.35787678
5.09430218,-4.829566,-9.97387981
5.10789394,-4.94843578,-11.13981724
5.09526253,-4.8888917,-10.75469398
5.1144886,-4.8379674,-10.41673756
5.11860847,-4.78733635,-10.06936169
5.11726856,-4.90140676,-11.22576046
5.10940123,-4.8421464,-10.84383392
5.09693527,-4.78572941,-10.46788692
5.12007666,-4.74038315,-10.14049149
5.09648371,-4.84767199,-11.27747726
5.1246047,-4.79630327,-10.93787861
5.10513639,-4.73987913,-10.55203342
5.09446478,-4.68937588,-10.18602467
5.07326078,-4.79229736,-11.32859802
5.10054779,-4.74307919,-10.98817062
5.12499475,-4.69640398,-10.65237808
5.10318661,-4.64448071,-10.27212334
5.09442568,-4.69230366,-11.06062984
5.10807705,-4.64517784,-10.71156216
5.1295042,-4.6010623,-10.37941933
5.12573719,-4.64928579,-11.18328476
5.09719038,-4.59411812,-10.78082466
5.10418701,-4.55009651,-10.43201637
5.10895634,-4.59711409,-11.24954605
5.12055206,-4.55024815,-10.89475822
5.09117794,-4.49937201,-10.50065804
5.09077597,-4.54520941,-11.31911945
5.11445713,-4.50060892,-10.97740078
5.12416315,-4.45713091,-10.62606907
5.08409357,-4.4946928,-11.40490437
5.09643698,-4.44969273,-11.04696178
5.11346292,-4.40819597,-10.70550537
5.11650085,-4.40440083,-11.16656113
5.09447145,-4.35743809,-10.77524567
5.10805988,-4.35418367,-11.25369263
5.0750308,-4.30779171,-10.8471241
5.07726049,-5.39787245,-11.28228092
5.11506796,-5.37748146,-11.1936245
5.08923435,-5.34111929,-11.03199768
5.11253738,-5.31581879,-10.93067265
5.10185003,-5.37808132,-11.23267651
5.09000349,-5.28008413,-10.78065014
5.10050535,-5.34528828,-11.1052475
5.11705637,-5.25429726,-10.68879604
5.10137367,-5.31322289,-10.98352623
5.10543346,-5.21907091,-10.55813313
5.07116461,-5.36824369,-11.26459217
5.11242962,-5.28173256,-10.87722969
5.10429621,-5.18739891,-10.44187355
5.11344337,-5.34436178,-11.19742584
5.09138632,-5.24385548,-10.73706722
5.12477922,-5.16070032,-10.3542614
5.09155989,-5.30355597,-11.05533314
5.11834955,-5.21621132,-10.65740108
5.09547281,-5.12213755,-10.21459103
5.10989189,-5.27311802,-10.96500397
5.1006074,-5.17896032,-10.52884483
5.11326742,-5.09389067,-10.13049793
5.08797264,-5.32702398,-11.2638464
5.10902119,-5.23741341,-10.85370922
5.1122551,-5.14755249,-10.43667793
5.11219931,-5.06134844,-10.02641296
