# .PCD v0.7 - Point Cloud Data file format
VERSION 0.7
FIELDS x y z rgb normal_x normal_y normal_z curvature
SIZE 4 4 4 4 4 4 4 4
TYPE F F F F F F F F
COUNT 1 1 1 1 1 1 1 1
WIDTH 542
HEIGHT 1
VIEWPOINT 0 0 0 1 0 0 0
POINTS 542
DATA ascii
0.12759978 -0.024924122 -0.037290327 1.3537964e-38 0.13163702 -0.097718596 0.98646986 0
0.1352779 -0.02620236 -0.036680803 1.2616006e-38 -0.067563489 -0.35095477 0.93395174 0
0.14153144 -0.026721032 -0.036519464 1.3261374e-38 -0.05843509 -0.017306132 0.99814123 0
0.14612341 -0.02738725 -0.036162905 1.3261372e-38 -0.059173539 0.040949237 0.9974075 0
0.1541125 -0.025393838 -0.036101054 1.3169182e-38 0.018917069 0.040652294 0.99899429 0
0.15957056 -0.026319984 -0.036072198 1.3538323e-38 0.0046153557 0.010195606 0.99993742 0
0.16439612 -0.026134668 -0.036058322 1.3353571e-38 -0.0085015576 0.010226554 0.99991155 0
0.17092043 -0.024196586 -0.036014881 1.2616008e-38 -0.012333635 0.015516532 0.99980354 0
0.17681703 -0.027315918 -0.036132522 1.3538686e-38 0.02803977 -0.0029857021 0.99960238 0
0.18313299 -0.026351757 -0.03629436 1.1236316e-38 0.019516237 0.0075827003 0.99978077 0
0.18871193 -0.027512757 -0.036120117 1.2064639e-38 -0.051918369 0.048202064 0.99748737 0
-0.1564281 -0.019939804 -0.041668944 9.7608285e-39 -0.12801901 0.12527826 0.98382747 0
-0.15194274 -0.020898774 -0.04152089 8.4704484e-39 -0.006256179 0.025561336 0.9996537 0
-0.1458353 -0.021768119 -0.041497588 7.640692e-39 0.0028578129 0.019923197 0.9997974 0
-0.140275 -0.02040904 -0.041414022 8.2871432e-39 -0.023364225 0.038260099 0.99899465 0
-0.13372497 -0.021210788 -0.041542318 7.4588245e-39 0.027019991 0.037408732 0.99893469 0
-0.12913635 -0.020500738 -0.041688137 6.260647e-39 0.013113704 0.03819453 0.99918431 0
-0.12446856 -0.020768924 -0.041747123 4.4189036e-39 -0.0042728037 0.0051512648 0.99997759 0
-0.11657371 -0.022314871 -0.041818786 3.4976704e-39 0.0061816983 0.013590805 0.9998886 0
-0.11146017 -0.020721942 -0.041857041 2.8537401e-39 0.02769815 0.036613427 0.99894559 0
-0.09308067 -0.022321703 -0.041255344 2.1161793e-39 -0.21211247 0.37808537 0.90114361 0
-0.086807869 -0.021013394 -0.041090973 2.1154576e-39 -0.064147599 0.36818638 0.92753637 0
-0.08236786 -0.019667292 -0.041288741 1.9314265e-39 -0.065495476 0.288243 0.95531482 0
-0.026879158 -0.020241028 -0.03662201 1.7050387e-38 0.38133442 -0.34568378 0.85737205 0
-0.019943975 -0.020298211 -0.038081139 1.7142224e-38 0.020546647 -0.025849009 0.99945462 0
-0.01480237 -0.021937599 -0.037958805 1.7326616e-38 -0.033685382 0.041544221 0.99856865 0
-0.0088098915 -0.021742553 -0.037750572 1.7603204e-38 -0.029141031 0.036161497 0.99892104 0
-0.0018279068 -0.01829472 -0.037760995 1.7695401e-38 0.015515934 0.012333181 0.99980354 0
0.0027030536 -0.021771135 -0.037804406 1.7695401e-38 0.014480554 0.003313391 0.99988967 0
0.0092447056 -0.021232761 -0.037820153 1.8064183e-38 0.0016315639 0.014121355 0.99989897 0
0.014689266 -0.02069076 -0.037841268 1.8156378e-38 -0.0040606 0.005108498 0.99997872 0
0.02108275 -0.021495409 -0.037724853 1.8340766e-38 -0.032365698 0.0084273443 0.99944055 0
0.028178375 -0.02088719 -0.037473354 1.8250005e-38 -0.043331716 -0.0099381264 0.99901134 0
0.033808365 -0.019117335 -0.037331335 1.8524081e-38 -0.055158563 0.020137969 0.99827451 0
0.038081512 -0.022058874 -0.037134722 1.8432607e-38 -0.057195708 -0.0085424697 0.99832642 0
0.044887509 -0.021267027 -0.036786944 1.8156376e-38 -0.042594731 -0.03447758 0.99849737 0
0.050273579 -0.020563653 -0.036452595 1.8156736e-38 -0.06921646 -0.032238409 0.99708068 0
0.054534938 -0.021089457 -0.036180522 1.824857e-38 -0.13608901 -0.11102003 0.98445642 0
0.12342879 -0.019838952 -0.03723716 1.3907101e-38 0.31232315 0.3346011 0.88909864 0
0.12955284 -0.020643245 -0.036703221 1.353796e-38 -0.29883471 0.098630466 0.94919431 0
0.13235492 -0.021739777 -0.036022872 1.3723427e-38 -0.14101847 0.041141458 0.98915172 0
0.14191714 -0.021382364 -0.036437023 1.3445407e-38 0.086249813 -0.14180079 0.9861306 0
0.14682415 -0.021243224 -0.036400411 1.3445407e-38 -0.035035301 0.041391328 0.9985286 0
0.15233792 -0.021757729 -0.036181506 1.2892955e-38 -0.029267697 0.036160298 0.9989174 0
0.15710172 -0.020628486 -0.036156669 1.3815268e-38 -0.0047552739 0.021855226 0.99974984 0
0.16573936 -0.02004721 -0.0361 1.2892596e-38 0 0 1 0
0.17032982 -0.020372391 -0.036112159 1.2892955e-38 -0.0045759366 0.021880439 0.99975014 0
0.17670093 -0.022259118 -0.036114596 1.2986592e-38 0.02586728 0.0079440856 0.99963385 0
0.18306106 -0.020818256 -0.036350381 1.0960089e-38 0.029771557 0.015868688 0.99943078 0
0.18933183 -0.021856364 -0.036327824 1.1234877e-38 -0.031301346 0.038754039 0.99875844 0
0.1937471 -0.019332051 -0.036273867 1.0774257e-38 -0.058409575 0.046528112 0.99720782 0
-0.15104996 -0.016163424 -0.041688614 1.0405835e-38 -0.027838144 0.067195415 0.99735141 0
-0.14570652 -0.01471789 -0.041689903 9.1158165e-39 -0.016593497 0.028275441 0.99946243 0
-0.14080903 -0.015713103 -0.04158878 9.6689972e-39 -0.00033249141 0.03796272 0.99927908 0
-0.13558652 -0.016842045 -0.041606057 8.4711757e-39 0.030884184 0.019440984 0.99933392 0
-0.12853308 -0.014081253 -0.041949142 6.1677255e-39 0.01265291 -0.015728556 0.99979627 0
-0.12159264 -0.014270086 -0.041850381 4.3263493e-39 -0.012487624 0.015710235 0.9997986 0
-0.1170086 -0.015263823 -0.041860152 2.9441407e-39 0.028768891 0.0065250928 0.99956471 0
-0.0247276 -0.016592404 -0.03653989 1.7142224e-38 0.43348053 -0.1896475 0.88098156 0
-0.021657705 -0.014559062 -0.037050352 1.7326616e-38 0.37375435 -0.41614068 0.82893592 0
-0.015074119 -0.016001917 -0.038153302 1.741881e-38 0.044933785 -0.046145182 0.99792361 0
-0.0088921376 -0.01390375 -0.038115673 1.7695398e-38 -0.030976817 0.046059899 0.99845827 0
-0.0041048652 -0.016190497 -0.037878189 1.7603204e-38 -0.022352938 0.058431379 0.99804115 0
0.0032499447 -0.014937067 -0.037885021 1.7971986e-38 0.0086514428 0.013305212 0.99987406 0
0.00903014 -0.014878892 -0.037894804 1.7971986e-38 0.0007974584 0.0069628744 0.99997544 0
0.015930846 -0.014010243 -0.037891123 1.8248214e-38 0.0060837376 0.013406982 0.99989158 0
0.019774793 -0.015964309 -0.037818991 1.8523721e-38 -0.02788306 0.0027883085 0.99960732 0
0.026209915 -0.015842114 -0.037613481 1.8340047e-38 -0.037165523 0.02169881 0.99907351 0
0.03234439 -0.014208379 -0.037501466 1.8432246e-38 -0.035222311 0.022669479 0.99912238 0
0.039273068 -0.013648558 -0.037188735 1.8524437e-38 -0.060757305 0.034545649 0.9975546 0
0.044800013 -0.014667057 -0.036785681 1.8340407e-38 -0.073072195 0.021452749 0.99709588 0
0.048857898 -0.014527028 -0.036469381 1.8432603e-38 -0.062710278 -0.0062572449 0.99801213 0
0.1167033 -0.012243428 -0.036175121 1.3998575e-38 0.50996357 0.30134201 0.80568618 0
0.12756148 -0.015218591 -0.038013298 1.3261373e-38 -0.17969079 0.069328979 0.98127705 0
0.13299467 -0.014017805 -0.036445856 1.2523812e-38 -0.26813185 0.027177604 0.96299875 0
0.14146647 -0.015603036 -0.036322027 1.4091132e-38 0.17618798 -0.002063042 0.98435438 0
0.14662924 -0.015000567 -0.036596783 1.3169539e-38 0.022322306 0.028927846 0.99933225 0
0.15374425 -0.0137449 -0.036440782 1.3537963e-38 -0.027518893 0.027891681 0.99923205 0
0.16073704 -0.015896792 -0.036219008 1.3815631e-38 -0.033276524 0.024787158 0.99913877 0
0.16450712 -0.013810813 -0.036150664 1.316954e-38 -0.020209093 0.0090533802 0.99975485 0
0.17075664 -0.015503428 -0.036167815 1.363016e-38 0.01047396 0.0083254585 0.99991053 0
0.17701529 -0.01500384 -0.036271174 1.3908186e-38 0.016669774 0.02205736 0.99961776 0
0.1841374 -0.01461043 -0.036465641 1.1143762e-38 0.023698704 0.0060769506 0.99970067 0
0.18880785 -0.014839766 -0.036515366 1.1235597e-38 0.0011598334 0.0065942518 0.99997759 0
0.19422619 -0.014032214 -0.036439616 1.1603658e-38 -0.031037088 0.020554623 0.9993068 0
-0.1461091 -0.0093045523 -0.041787673 1.0128888e-38 -0.024758203 -0.0024204771 0.99969047 0
-0.14021859 -0.0071764765 -0.041710179 1.0681699e-38 -0.024456659 -0.032641392 0.99916786 0
-0.13536876 -0.0095275957 -0.041690674 9.6686329e-39 -0.00079572172 -0.0071591767 0.99997407 0
-0.12867582 -0.0076672011 -0.041737419 9.8519354e-39 0.031267256 -0.038491864 0.99876958 0
-0.12541252 -0.010474697 -0.04186146 1.0682415e-38 -0.0016315728 -0.014121355 0.99989897 0
-0.11710039 -0.0098955408 -0.041918367 1.3170971e-38 0.026674703 -0.017266938 0.99949503 0
-0.11217026 -0.0061159246 -0.041962143 1.2984423e-38 0.065448619 -0.050191216 0.99659288 0
-0.014507248 -0.0091079753 -0.037377425 1.7602842e-38 0.36185327 -0.31440634 0.87761652 0
-0.0092517501 -0.0076026795 -0.038136847 1.7695399e-38 0.049188912 -0.061882831 0.99687064 0
-0.0020422942 -0.0089838412 -0.038108241 1.7879789e-38 -0.046109613 0.033607259 0.99837095 0
0.0041622887 -0.0090990653 -0.037980534 1.8064182e-38 -0.021253891 0.025837358 0.99944025 0
0.0086099748 -0.0089817112 -0.037969157 1.8248572e-38 0.037444871 0.017352985 0.99914801 0
0.014670955 -0.0093729561 -0.037983499 1.824785e-38 -0.018200601 0.030243956 0.99937683 0
0.018683238 -0.0084542762 -0.038029842 1.8247494e-38 -0.021712855 0.059509993 0.99799156 0
0.027939271 -0.0086441496 -0.037787259 1.8431885e-38 -0.022898497 0.028084405 0.99934322 0
0.034023751 -0.010124063 -0.037548557 1.8431885e-38 -0.052425098 0.033758298 0.99805409 0
0.038636785 -0.0077927038 -0.037393443 1.8432963e-38 -0.056502849 0.005667699 0.99838638 0
0.045874067 -0.0088391816 -0.036647923 1.84326e-38 -0.16303782 -0.055312425 0.98506808 0
0.048296563 -0.008879506 -0.036209218 1.8616633e-38 -0.19275704 -0.074742489 0.97839582 0
0.11470812 -0.0080198813 -0.036327701 1.4828337e-38 0.63379604 0.28667945 0.71841317 0
0.12186017 -0.0094449036 -0.038647801 1.3906381e-38 0.13051508 -0.0048479047 0.99143445 0
0.12940411 -0.0083540846 -0.03714741 1.3076624e-38 -0.3162308 -0.064296044 0.9465009 0
0.13368389 -0.00855067 -0.036276549 1.3814547e-38 -0.076140203 -0.0071498887 0.99707144 0
0.14149402 -0.0090808859 -0.036475826 1.3446127e-38 0.11950027 0.085696109 0.98912889 0
0.14762935 -0.0079822028 -0.036853813 1.2892955e-38 -0.047817066 0.011984985 0.99878424 0
0.15443286 -0.010279977 -0.036501255 1.3262093e-38 -0.049382482 0.0080876807 0.99874711 0
0.15899366 -0.0093812812 -0.036322296 1.3538321e-38 -0.02808487 0.0027885698 0.99960166 0
0.1641746 -0.0067259083 -0.03618452 1.381491e-38 -0.028191661 0.003221899 0.99959737 0
0.16999014 -0.0089577446 -0.036170486 1.3169542e-38 0.013934353 -0.0013836089 0.99990195 0
0.1771965 -0.0092615411 -0.036290132 1.3630877e-38 0.032550234 0.00064197596 0.99946994 0
0.18283594 -0.0094839958 -0.036493931 1.1235956e-38 0.035552081 0.017143346 0.99922079 0
0.18953663 -0.0096196374 -0.036629692 1.2064993e-38 -0.00091090094 0.021400068 0.99977058 0
0.19524896 -0.0090551805 -0.036566954 1.2894032e-38 -0.021958446 0.025692651 0.99942875 0
0.20049424 -0.00887392 -0.036251098 1.252525e-38 -0.095909186 0.063483141 0.99336368 0
-0.14602843 -0.0034535318 -0.041785873 9.9441352e-39 -0.046909031 0.033643164 0.99833244 0
-0.1396597 -0.0037692511 -0.041601218 9.8522969e-39 0.015516467 0.012731439 0.99979854 0
-0.13578689 -0.0043644491 -0.041578431 1.0589861e-38 -0.015538216 -0.012704008 0.99979854 0
-0.12983769 -0.0040258663 -0.041587107 1.1603655e-38 0.025197882 -0.030709969 0.99921066 0
-0.12348139 -0.0027054951 -0.04164324 1.2155383e-38 -0.009368835 -0.020456661 0.99974686 0
-0.11665641 -0.0024057378 -0.041913822 1.3261725e-38 0.037319612 0.01732545 0.99915314 0
-0.069349781 -0.00088385365 -0.041839462 1.0101905e-39 -0.2407749 0.12038944 0.96308559 0
-0.0098082526 -0.0039365413 -0.037375323 1.7695397e-38 0.48627549 -0.50181961 0.71534133 0
-0.0038410348 -0.003102679 -0.038213897 1.8156378e-38 -0.013490648 -0.036684003 0.99923587 0
0.0032325059 -0.0039303023 -0.038017113 1.8064182e-38 -0.022304557 -0.026274057 0.99940586 0
0.008600791 -0.0011507263 -0.037812311 1.8248572e-38 -0.017873485 -0.074006952 0.99709755 0
0.014810178 -0.003353938 -0.037929278 1.8248213e-38 0.0025496681 -0.05055435 0.99871802 0
0.022424145 -0.0040389067 -0.037858173 1.8248572e-38 -0.024891231 -0.033015043 0.99914485 0
0.02575691 -0.0021803209 -0.037738215 1.8432962e-38 -0.013846114 -0.088336289 0.99599445 0
0.032107029 -0.002160395 -0.037497744 1.8431885e-38 -0.039277934 -0.056881551 0.99760795 0
0.03964477 -0.0019628501 -0.037038706 1.8339688e-38 -0.10820944 -0.12649794 0.98604715 0
0.044176277 -0.0025840153 -0.036383376 1.843224e-38 -0.20377271 -0.13268819 0.96998477 0
0.11686438 -0.003317679 -0.038077015 1.4090771e-38 0.29411739 0.14009182 0.94544661 0
0.12240804 -0.0032654626 -0.038356531 1.3814544e-38 -0.13717423 0.024692126 0.99023914 0
0.13020238 -0.0031912096 -0.03708142 1.2523808e-38 -0.093681388 0.16796277 0.98133194 0
0.1355454 -0.0041221566 -0.036579199 1.3353929e-38 0.055689525 0.17031468 0.98381484 0
0.14118102 -0.0038323232 -0.036707863 1.3353929e-38 0.017709328 0.033108778 0.99929488 0
0.14617667 -0.0059874165 -0.036948692 1.3076986e-38 -0.046475891 -0.036942471 0.99823612 0
0.15322296 -0.0034191133 -0.036537606 1.3078061e-38 -0.036410734 -0.0052802679 0.99932295 0
0.15962388 -0.002341303 -0.036308717 1.3446126e-38 -0.021720491 -0.0047709057 0.99975276 0
0.16446646 -0.0026903814 -0.036207352 1.3446123e-38 -0.013444982 0.0061654104 0.99989063 0
0.16972747 -0.0039588241 -0.036197323 1.3262095e-38 0.0076788552 0.0062643443 0.99995095 0
0.17767252 -0.0031423199 -0.036332712 1.2524893e-38 0.0306451 0.0045219441 0.99952012 0
0.18258099 -0.0028715525 -0.036517687 1.3078788e-38 0.01822469 0.0013346826 0.99983305 0
0.18976037 -0.0028627708 -0.036715109 1.2802194e-38 0.024098307 0.0023052164 0.99970698 0
0.19508222 -0.003748663 -0.036713488 1.271e-38 -0.027459774 0.026380558 0.99927473 0
0.20140631 -0.0024428766 -0.036509924 1.1602932e-38 -0.04808056 0.043503463 0.99789566 0
0.20639458 -0.0025262139 -0.036138501 1.3262452e-38 -0.086180232 0.060310323 0.99445242 0
-0.14127809 0.0025756715 -0.041886404 1.0773173e-38 -0.056705985 0.049206518 0.9971776 0
-0.13471539 0.0029697136 -0.041581716 1.187988e-38 -0.036758777 0.0087561375 0.99928582 0
-0.12845041 0.0049867197 -0.041583702 1.1786962e-38 0.028670296 -0.051388536 0.99826717 0
-0.12229549 0.003758996 -0.041641124 1.215574e-38 0.0051737516 0.0041124704 0.99997813 0
-0.1170036 0.002585076 -0.041802675 1.2985502e-38 0.049754523 -0.06264583 0.99679488 0
-0.07877288 0.0053508687 -0.041827708 1.2246858e-38 -0.29928842 -0.059857816 0.95228332 0
-0.076363817 0.0053194887 -0.041581459 8.5640958e-39 0.073666722 -0.23744895 0.96860278 0
-0.066908754 0.0016144539 -0.041625973 1.3789702e-39 0.067378402 0.0018156742 0.99772584 0
-0.065380216 0.0022587704 -0.041890226 1.4708085e-39 0.47781387 -0.23891115 0.84534931 0
-0.0031252981 0.0018049037 -0.037451431 1.8063819e-38 0.43328947 -0.58745211 0.68349129 0
0.001683709 0.0041137617 -0.037356101 1.8064179e-38 0.084731825 -0.20833014 0.97438139 0
0.0096783778 0.0044216216 -0.037273578 1.824857e-38 -0.040104277 -0.12157733 0.99177146 0
0.015821394 0.0025776934 -0.037360214 1.8340404e-38 -0.011276013 -0.13167696 0.99122858 0
0.021252753 0.0056656231 -0.036797393 1.8340766e-38 0.0013815879 -0.12767699 0.99181485 0
0.028327147 0.0047401637 -0.036845922 1.8248572e-38 -0.030104823 -0.15457898 0.98752171 0
0.033079159 0.0041363151 -0.036680717 1.8616271e-38 -0.14870769 -0.30405456 0.9409765 0
0.0385281 0.0022835683 -0.036410458 1.8524081e-38 -0.15157282 -0.22722264 0.96197486 0
0.11565168 0.0034947807 -0.037194982 1.3907461e-38 0.51719296 -0.4557648 0.72442383 0
0.12290724 0.0042930823 -0.038122077 1.3814187e-38 0.050400194 -0.043767504 0.99776959 0
0.12840797 0.0034243611 -0.037962317 1.3168819e-38 -0.13723941 0.099556446 0.98552215 0
0.13399203 0.0019064931 -0.03679768 1.3261373e-38 -0.20919193 -0.067907155 0.97551388 0
0.14052114 0.0018604582 -0.036501504 1.3537961e-38 0.067253664 -0.046757136 0.99663973 0
0.14632836 0.0029860826 -0.036761392 1.2892592e-38 -0.031055031 0.0068282019 0.99949437 0
0.15252687 0.0023156509 -0.036490422 1.3631233e-38 -0.042139344 -0.015546348 0.99899077 0
0.1593094 0.0023877022 -0.036273327 1.3446483e-38 -0.019585051 -0.015592036 0.9996866 0
0.16583411 0.0033977926 -0.036159635 1.4091491e-38 -0.015451482 -0.012412893 0.9998036 0
0.17165406 0.0030531909 -0.036171094 1.3445766e-38 0.012635794 -0.015592466 0.9997986 0
0.1763379 0.0031454954 -0.036243431 1.2709281e-38 0.031177491 -0.0067760241 0.99949092 0
0.18268433 0.0040199044 -0.036484797 1.2249025e-38 0.031480916 -0.0052397768 0.99949062 0
0.18894811 0.0012490834 -0.036698624 1.2341217e-38 0.033348382 0.0010918848 0.99944317 0
0.19612928 0.0033909089 -0.03692909 1.2801834e-38 0.0070944466 0.022724809 0.99971658 0
0.201487 0.0016949966 -0.036698107 1.243341e-38 -0.037298094 0.046183221 0.99823642 0
0.20649616 0.0031829812 -0.036479328 1.2801115e-38 -0.060730498 0.047331642 0.99703139 0
0.21269269 0.0055848053 -0.036028847 1.3169179e-38 -0.15940061 0.071188807 0.98464394 0
-0.14432272 0.011871544 -0.041999999 9.6668238e-39 0 0 1 0
-0.14156051 0.009262614 -0.041973725 1.1510736e-38 -0.018547438 0.0018547355 0.99982619 0
-0.13439164 0.0091853403 -0.041749258 1.2432331e-38 -0.050514996 0.038186334 0.99799305 0
-0.12793343 0.0090472233 -0.041318465 1.2156462e-38 -0.032507863 -0.019935779 0.99927264 0
-0.12222089 0.0087622348 -0.041507229 1.2248296e-38 0.061495196 -0.075930163 0.995215 0
-0.11718183 0.0093480181 -0.041684493 1.3355361e-38 0.041547656 -0.011492849 0.99907047 0
-0.079473868 0.0077646887 -0.041895207 1.3720549e-38 -0.2985619 -0.060265597 0.95248562 0
-0.077202827 0.0077865454 -0.041618377 1.3813464e-38 0.11167622 0.12780184 0.98549229 0
-0.070325151 0.0096527487 -0.041898582 2.7604599e-39 -0.011072831 -0.11072841 0.99378902 0
0.0032960484 0.0078343349 -0.036666695 1.8432602e-38 0.18693852 -0.29993159 0.9354651 0
0.0086917365 0.010117783 -0.03657262 1.8340406e-38 0.0048125805 -0.10286777 0.99468344 0
0.014605557 0.0092864018 -0.036506042 1.8432599e-38 -0.034702398 -0.12123732 0.99201673 0
0.020834727 0.008576978 -0.036400478 1.8340765e-38 -0.020627653 -0.14091845 0.98980623 0
0.026709814 0.0074891276 -0.036435425 1.8524437e-38 -0.040226575 -0.18529829 0.98185855 0
0.11703214 0.0075410064 -0.037026063 1.4366999e-38 0.46589214 -0.053144254 0.88324416 0
0.12214694 0.0090513872 -0.037930954 1.3814184e-38 0.054186437 0.012575051 0.99845171 0
0.12882483 0.0074576247 -0.038172148 1.326101e-38 -0.29033476 -0.105335 0.95111001 0
0.13555406 0.0076356097 -0.03667533 1.3168819e-38 -0.12792984 0.16799046 0.9774524 0
0.14110984 0.0080977939 -0.036658492 1.3814906e-38 0.088462763 0.014405092 0.99597532 0
0.14813887 0.0095649473 -0.036676258 1.3169177e-38 -0.073955953 -0.017484978 0.99710822 0
0.15186794 0.0089290421 -0.036411617 1.3076983e-38 -0.076579764 -0.019923452 0.99686432 0
0.15870792 0.0076846224 -0.036191456 1.3446483e-38 -0.0092234258 -0.020389326 0.9997496 0
0.16342016 0.0089937113 -0.036127627 1.2708201e-38 -0.015321446 -0.012571422 0.9998036 0
0.17109057 0.0085927993 -0.036109898 1.3353929e-38 0.010891844 0.0023475112 0.99993795 0
0.18283322 0.0093004713 -0.036478274 1.2987308e-38 0.023072625 -0.0039961915 0.99972582 0
0.18909286 0.0078593688 -0.036715891 1.2894753e-38 0.048309535 0.0047107781 0.99882126 0
0.19506915 0.0093726031 -0.036964428 1.2157186e-38 0.0195677 0.007684934 0.99977899 0
0.20138724 0.010993363 -0.0370574 1.3447201e-38 -0.024959659 0.031400912 0.99919516 0
0.20853822 0.0078088916 -0.036574736 1.2432331e-38 -0.04272015 0.020874729 0.99886894 0
0.21206851 0.010376447 -0.036375776 1.2616008e-38 -0.091407157 0.039456394 0.99503165 0
-0.24677521 0.015795682 -0.041930161 8.655197e-39 0.0099387048 -0.043331284 0.99901134 0
-0.24582003 0.016245186 -0.041923139 7.7332393e-39 0.024959764 -0.031400923 0.99919516 0
-0.14671949 0.01692833 -0.041970469 9.9434107e-39 -0.001413734 -0.014142605 0.99989897 0
-0.14145286 0.015947867 -0.041966677 1.0496586e-38 -0.0155397 -0.012622187 0.99979961 0
-0.13379596 0.017033188 -0.041754652 9.4802662e-39 -0.0032213812 -0.028191721 0.99959737 0
-0.12855791 0.016233016 -0.041663613 1.1879875e-38 -0.056186091 0.027542531 0.99804038 0
-0.12367438 0.014324369 -0.041259546 1.1603288e-38 0.0017569462 0.019304102 0.99981207 0
-0.11709794 0.014791227 -0.041508485 1.2893665e-38 0.068345129 -0.070310093 0.99518114 0
-0.11130608 0.015426056 -0.041816261 1.178696e-38 0.050475433 -0.060497273 0.99689126 0
-0.085724145 0.017070869 -0.041882724 1.3445759e-38 -0.00085577171 -0.013508902 0.99990839 0
-0.07922478 0.013971974 -0.041967303 1.3998575e-38 0.029847505 0.011293412 0.99949068 0
-0.069709219 0.015043323 -0.041866403 1.2893308e-38 -0.057180088 0.034225848 0.99777704 0
0.0096342172 0.012793488 -0.036130533 1.8156378e-38 0.042359788 -0.25950408 0.96481258 0
0.11982661 0.017850591 -0.036145356 1.3629794e-38 -0.18565552 0.6188525 0.76325208 0
0.12243418 0.015064861 -0.037141025 1.2708558e-38 0.24880657 -0.18802889 0.95012659 0
0.1278457 0.015323201 -0.036807261 1.3629434e-38 -0.036018323 -0.08889199 0.99538988 0
0.13563927 0.013915826 -0.037114657 1.3168819e-38 -0.025144372 0.030790513 0.99920952 0
0.14159036 0.014827754 -0.036816925 1.4182966e-38 0.027843736 -0.0027843607 0.9996084 0
0.14848471 0.013310341 -0.036597263 1.3721628e-38 -0.064554103 0.0042829821 0.99790502 0
0.15204605 0.014776987 -0.036381435 1.353832e-38 -0.072715983 5.691261e-05 0.99735272 0
0.16018352 0.01465479 -0.036100365 1.3445404e-38 -0.014097542 0.0016111453 0.99989933 0
0.16678758 0.014480233 -0.0361 1.3077345e-38 0 0 1 0
0.17218988 0.013922795 -0.036159411 1.3538679e-38 0.021803498 0.0046697687 0.99975139 0
0.17816895 0.014774919 -0.036248259 1.2893671e-38 0.020981869 -0.0021890644 0.9997775 0
0.183515 0.014864549 -0.036443859 1.317134e-38 0.049930032 -0.010364328 0.99869895 0
0.19002359 0.015147594 -0.036707938 1.2802554e-38 0.032278892 -0.0083695296 0.99944383 0
0.19498003 0.015033861 -0.036954109 1.2341576e-38 0.057119828 0.0031734209 0.99836224 0
0.20080781 0.015526216 -0.037102945 1.2525606e-38 -0.0078513129 0.0093541741 0.99992537 0
0.20742835 0.01462695 -0.036888611 1.2431971e-38 -0.047888592 0.038064942 0.9981271 0
0.21339791 0.016026199 -0.036573436 1.3169176e-38 -0.11196455 0.067822292 0.99139506 0
-0.24733417 0.021860331 -0.041653704 7.9176306e-39 -0.046841096 -0.037670419 0.99819183 0
-0.24502325 0.01846241 -0.041847385 7.6413996e-39 0.049189467 -0.061883382 0.99687058 0
-0.15867393 0.021029087 -0.041981697 1.040403e-38 -0.015580467 -0.012649697 0.9997986 0
-0.15276945 0.020253278 -0.04193135 1.058878e-38 -0.015557902 -0.012723573 0.999798 0
-0.14796412 0.021722164 -0.041896984 1.1141954e-38 0.0056568268 -0.014730127 0.99987555 0
-0.14055778 0.023085866 -0.041904002 1.1234148e-38 -0.0038991247 -0.0031808582 0.99998736 0
-0.1350252 0.020776602 -0.041851047 1.0219993e-38 -0.025714764 0.021607839 0.99943572 0
-0.13097058 0.023339052 -0.041782871 1.2249018e-38 -0.053365096 0.033850752 0.99800116 0
-0.12200807 0.020533618 -0.041596558 1.1787681e-38 -0.025123753 0.036941744 0.99900156 0
-0.11646461 0.020928578 -0.041357543 1.1786597e-38 -0.037589293 0.055631254 0.99774349 0
-0.11148792 0.02109745 -0.041446071 1.2524524e-38 0.086110421 -0.065179661 0.99415123 0
-0.10655028 0.023258399 -0.041814014 1.1325984e-38 0.10954863 -0.052740768 0.99258125 0
-0.085634954 0.021676285 -0.0418831 1.3262449e-38 0.0023904326 0.013847682 0.99990129 0
-0.078341246 0.020858893 -0.041987367 1.4090045e-38 -0.027882995 0.0027882871 0.99960726 0
-0.068363436 0.022092307 -0.041784048 1.3538672e-38 0.0064361785 -0.028667398 0.99956834 0
0.109385 0.022985987 -0.037915513 1.0131769e-38 0.22376257 0.15318285 0.96253073 0
0.11925986 0.0218926 -0.03837318 1.2984783e-38 -0.35808685 0.11689723 0.92634165 0
0.12268099 0.020997675 -0.037348013 1.3722348e-38 -0.0426309 0.3322657 0.94222188 0
0.12890464 0.02099859 -0.037387699 1.3906025e-38 -0.12926091 0.21958512 0.96699226 0
0.13490182 0.020422872 -0.036799006 1.3261372e-38 -0.048684187 -0.0024555468 0.99881119 0
0.14189444 0.020673111 -0.037194155 1.4367359e-38 -0.033711463 0.074560314 0.99664652 0
0.14822616 0.020727672 -0.03663801 1.3353208e-38 -0.092173986 -0.0025900162 0.99573952 0
0.15148167 0.021697611 -0.036360171 1.2708557e-38 -0.076408535 -0.014260202 0.99697453 0
0.15903255 0.019724436 -0.036077976 1.3077701e-38 -0.014951131 -0.0056570657 0.99987221 0
0.16493645 0.021115491 -0.036055475 1.3261374e-38 0.0080375783 -0.0036610805 0.99996096 0
0.17029971 0.020703359 -0.036117941 1.2801119e-38 0.018725183 -0.001994133 0.99982268 0
0.17733705 0.020323748 -0.036233671 1.3170261e-38 0.0076785684 0.006264112 0.99995095 0
0.18373096 0.021781262 -0.036437884 1.3355012e-38 0.044718828 0.0082245981 0.99896574 0
0.18805751 0.02014095 -0.03666329 1.2802558e-38 0.050172888 -0.00037064822 0.99874049 0
0.19472295 0.021790661 -0.0369353 1.2156466e-38 0.044553392 -0.01518729 0.99889153 0
0.20157678 0.022210758 -0.037175126 1.3169899e-38 0.013945016 -0.0013748548 0.99990183 0
0.20631514 0.019288726 -0.037090313 1.2800752e-38 -0.025447022 0.031013558 0.99919498 0
0.21250746 0.022925712 -0.036936507 1.1878078e-38 -0.082600638 0.039093696 0.99581563 0
0.2177362 0.020814523 -0.03625001 1.3261372e-38 -0.13605867 0.052235454 0.98932284 0
-0.24793799 0.028035063 -0.041553162 8.1942189e-39 -0.0062261708 -0.075972207 0.99709046 0
-0.24294931 0.025691366 -0.041844558 8.009829e-39 0.078467198 -0.023092771 0.99664915 0
-0.15743074 0.02704547 -0.041900665 1.0681333e-38 -0.0078552049 -0.0062438976 0.99994969 0
-0.15431495 0.026851134 -0.041887414 1.0128878e-38 -0.0092823599 0.00092823204 0.99995655 0
-0.14777833 0.028722785 -0.04183536 1.1418897e-38 0.027844774 -0.0027844654 0.9996084 0
-0.14199351 0.024782555 -0.041900001 1.123415e-38 0 0 1 0
-0.13572524 0.026221992 -0.04192619 1.123415e-38 0.0016113777 0.01409983 0.99989933 0
-0.1273988 0.026421437 -0.041759033 1.1233788e-38 -0.042537149 0.042280968 0.99819988 0
-0.12192609 0.027622726 -0.041573148 1.1142673e-38 -0.038259983 0.024878003 0.99895805 0
-0.11669642 0.027409462 -0.041533235 1.197171e-38 -0.024382226 0.003476484 0.99969667 0
-0.11130201 0.027219594 -0.041490816 1.2063187e-38 0.010893785 0.031129003 0.99945605 0
-0.10496691 0.027421352 -0.041738786 1.1233068e-38 0.046697952 -0.026536975 0.99855649 0
-0.085163452 0.026248455 -0.041921381 1.2615643e-38 -0.016224446 -0.012844775 0.99978584 0
-0.081479862 0.027954375 -0.041907154 1.2983344e-38 -0.0094611142 -0.020330958 0.99974859 0
-0.074100032 0.026657235 -0.04175996 1.3168453e-38 -0.024479743 -0.033004645 0.99915534 0
-0.068958119 0.028006645 -0.041653421 1.3445401e-38 -0.024601014 -0.025601447 0.9993695 0
-0.06410756 0.028264232 -0.041507434 1.2892946e-38 0.037487693 -0.12009811 0.99205399 0
-0.058278814 0.028295295 -0.041961119 1.3169889e-38 0.1056485 -0.13291259 0.98548096 0
-0.051652744 0.029941177 -0.041922517 1.2248656e-38 0.065501682 -0.37663561 0.92404282 0
-0.032003473 0.029883143 -0.04183878 5.5101298e-40 -0.21982887 -0.10274593 0.97011268 0
0.11058477 0.027593104 -0.039227448 1.3814545e-38 0.27068418 0.0066567683 0.96264517 0
0.1163936 0.027547851 -0.039008886 1.4091487e-38 -0.22642368 -0.14362 0.96338236 0
0.12352102 0.02712738 -0.036805212 1.3537596e-38 -0.028260773 -0.01038359 0.99954665 0
0.12854224 0.02825705 -0.037959903 1.3629791e-38 0.2329504 -0.06487982 0.97032195 0
0.13523594 0.028975282 -0.037454154 1.3814547e-38 -0.085161313 0.089156717 0.99237019 0
0.14051175 0.024823768 -0.037157983 1.2708917e-38 0.018451679 -0.0024175874 0.99982685 0
0.1472522 0.028417431 -0.036706857 1.3445403e-38 -0.065016352 -0.0088940766 0.99784458 0
0.15298215 0.02687902 -0.036245033 1.3077338e-38 -0.045421124 0.01412546 0.99886805 0
0.15868735 0.027312044 -0.036067769 1.3077701e-38 -0.018635655 -0.0088473922 0.99978721 0
0.16700712 0.026163056 -0.03605327 1.2340498e-38 0.012731439 -0.015516437 0.99979854 0
0.17182533 0.025488473 -0.036124606 1.2617084e-38 0.012333612 -0.015516504 0.9998036 0
0.17714724 0.025297806 -0.036255762 1.2617446e-38 0.027977891 -0.0027838522 0.9996047 0
0.18393129 0.025847945 -0.036476452 1.3078784e-38 0.023924634 0.0041597141 0.9997052 0
0.18869889 0.026471702 -0.036634088 1.3263176e-38 0.035374809 -0.012259127 0.99929899 0
0.19276571 0.025248038 -0.036792129 1.2709998e-38 0.012487601 -0.015710233 0.99979866 0
0.20028476 0.025305467 -0.0371201 1.2432686e-38 0.055444438 -0.015650686 0.99833912 0
0.20788726 0.027216893 -0.037227936 1.2985504e-38 -0.0042957477 0.011839058 0.99992073 0
0.21241711 0.02688255 -0.037082847 1.3077339e-38 -0.059269693 0.0098873135 0.99819297 0
0.21800186 0.026938049 -0.036526382 1.3168817e-38 -0.11449338 0.036551453 0.99275136 0
0.22371006 0.029708462 -0.036163669 1.224686e-38 -0.055095829 0.019492744 0.99829078 0
-0.25298348 0.03442673 -0.041821338 8.8395883e-39 0.01531762 0.012532603 0.99980414 0
-0.24895246 0.033535622 -0.041536789 7.5495655e-39 -0.047772367 0.031762641 0.99835306 0
-0.24365392 0.031282052 -0.04159566 8.2864131e-39 0.13630171 0.0062406422 0.99064767 0
-0.16938303 0.034784995 -0.041999999 1.0589499e-38 0 0 1 0
-0.16468547 0.033526223 -0.04199598 1.0312551e-38 -0.0055690962 0.00055690721 0.99998426 0
-0.15830399 0.033956487 -0.041916579 1.0496943e-38 -0.0041749952 0.005119347 0.99997824 0
-0.15240587 0.033138935 -0.04189083 1.0035966e-38 -0.009373866 0.011695473 0.9998877 0
-0.14689505 0.031306159 -0.041856118 1.0957564e-38 0.015143621 0.012788063 0.99980348 0
-0.14105719 0.031799205 -0.041928947 1.058806e-38 0.011734237 0.0094266692 0.99988675 0
-0.13554743 0.031065773 -0.041992359 1.1141592e-38 0.001392583 0.014124831 0.99989927 0
-0.12945956 0.031732235 -0.041964862 1.289403e-38 -0.012708737 0.015533539 0.99979866 0
-0.12421644 0.033674184 -0.041877583 1.1695123e-38 -0.031402148 0.038541328 0.99876344 0
-0.11696079 0.0322906 -0.041658286 1.1325984e-38 0.0027173113 0.04442367 0.99900907 0
-0.10834133 0.03234167 -0.041685041 1.2523445e-38 0.031901371 0.025357485 0.99916929 0
-0.1051212 0.034425646 -0.041731436 1.1693686e-38 -0.016690927 0.020947605 0.99964124 0
-0.10161144 0.033345997 -0.041846234 1.2431251e-38 0.19162954 -0.018893171 0.98128551 0
-0.081060074 0.032642394 -0.041881409 1.2614922e-38 -0.040541075 0.018620513 0.99900436 0
-0.074098445 0.033822931 -0.041611835 1.2707835e-38 -0.019389408 -0.0090031801 0.99977148 0
-0.067813359 0.033800058 -0.041512892 1.2800748e-38 -0.022138141 -0.0096655376 0.99970818 0
-0.062661916 0.03390722 -0.041474055 1.2892948e-38 0.0099611739 0.0118051 0.99988073 0
-0.057020329 0.033125941 -0.041591533 1.2708554e-38 0.00033199592 -0.016861932 0.99985778 0
-0.052113038 0.032855198 -0.041653998 1.1694765e-38 0.13492166 -0.037841618 0.9901334 0
-0.045860276 0.035557788 -0.041872498 1.3443959e-38 -0.069557078 -0.29741684 0.95221066 0
-0.038826246 0.035260782 -0.041764099 1.0101905e-39 0.0076306877 -0.19947214 0.97987378 0
-0.030966619 0.033558268 -0.041584712 4.5917748e-40 -0.10103679 -0.0088687371 0.99484318 0
-0.027090507 0.033848122 -0.041166902 7.3468397e-40 -0.010425963 -0.15730892 0.98749441 0
-0.022074528 0.033243991 -0.041414961 7.350427e-40 0.071033478 -0.34709242 0.93513697 0
0.10155176 0.032098576 -0.036822949 1.4458827e-38 0.33885098 0.22246309 0.91416097 0
0.10626037 0.032236647 -0.03843024 1.3815259e-38 0.22341098 0.049116805 0.97348607 0
0.11108395 0.033763029 -0.038435541 1.3998215e-38 -0.084498949 -0.15722686 0.9839409 0
0.1176461 0.032877553 -0.038245082 1.3076253e-38 -0.036698066 -0.081688151 0.99598211 0
0.12338908 0.032868925 -0.037880085 1.3721627e-38 -0.07163506 0.056072496 0.99585354 0
0.12942554 0.033372194 -0.037585046 1.3998214e-38 0.055340201 -0.10022292 0.99342477 0
0.13479181 0.033233941 -0.037258271 1.3906741e-38 -0.099607565 -0.1318814 0.98624825 0
0.14146496 0.032582827 -0.037191369 1.2891872e-38 -0.076592617 0.0080919862 0.9970296 0
0.14870043 0.033441979 -0.036561739 1.3814184e-38 -0.083049603 -0.004240416 0.99653637 0
0.15318727 0.033935606 -0.036237683 1.307662e-38 -0.06164968 0.0017048441 0.99809641 0
0.15735891 0.032815702 -0.036036007 1.3629074e-38 -0.028062141 0.0028007745 0.99960226 0
0.16959672 0.032343313 -0.036050469 1.2985508e-38 0.018680658 -0.0020023203 0.99982345 0
0.17744754 0.032242484 -0.036196798 1.2893672e-38 0.036291853 -0.006585171 0.99931949 0
0.18426894 0.031769071 -0.036460239 1.2525247e-38 0.013641938 -0.006246455 0.99988747 0
0.18718554 0.033578005 -0.036522835 1.2894391e-38 0.035719387 -0.0068840222 0.99933821 0
0.19524947 0.032887578 -0.036806237 1.2986587e-38 0.044690575 -0.010226884 0.99894851 0
0.20002893 0.035681985 -0.03694348 1.2801833e-38 0.040336099 -0.018305615 0.99901849 0
0.20762488 0.033451855 -0.037220877 1.1601492e-38 -0.0013923731 -0.013923717 0.99990213 0
0.21523161 0.035475597 -0.036918893 1.2984788e-38 -0.084453166 0.0095158378 0.996382 0
0.21863404 0.032604713 -0.036576591 1.2523808e-38 -0.089014761 0.0097229695 0.99598283 0
0.22484462 0.033812236 -0.03627969 1.3261011e-38 -0.014719822 0.071627975 0.9973228 0
0.22886382 0.03516677 -0.036173135 1.2154667e-38 -0.11277275 0.012199335 0.99354589 0
0.23575494 0.033550814 -0.036223236 1.2155749e-38 0.0086224657 0.081526823 0.99663383 0
0.24414861 0.034833055 -0.036435258 1.1510018e-38 0.28569815 -8.15351e-06 0.95831966 0
0.24661963 0.035254337 -0.036830645 1.3078428e-38 0.038777325 0.27144068 0.96167374 0
-0.25675297 0.039229557 -0.041846588 8.4704414e-39 0.023460887 0.095797375 0.99512434 0
-0.24972764 0.038128048 -0.041855466 7.6421213e-39 -0.027130017 0.068990774 0.99724829 0
-0.24461292 0.037314679 -0.041719612 8.1031009e-39 0.085721746 0.062097915 0.99438202 0
-0.16570619 0.03911116 -0.041999996 1.0220354e-38 0 0 1 0
-0.1591716 0.037266795 -0.041937221 1.0312195e-38 -0.0084701814 0.01035879 0.99991047 0
-0.15168454 0.04048451 -0.041994557 9.5746254e-39 0.0018137995 0.014102603 0.99989891 0
-0.1455017 0.036798265 -0.041945007 1.1140875e-38 -0.01276649 0.015559176 0.99979746 0
-0.1420064 0.038655274 -0.041993223 9.6668196e-39 0.0077583347 0.006365804 0.99994963 0
-0.11768349 0.037960786 -0.041968279 1.0588057e-38 0.015515838 0.012730954 0.9997986 0
-0.11049227 0.037388906 -0.041840903 1.197099e-38 -0.024014564 0.04519375 0.99868959 0
-0.10392199 0.038745176 -0.04190496 1.2616001e-38 0.011674769 0.0485834 0.99875087 0
-0.079761282 0.041247901 -0.041964464 1.3629072e-38 -0.069057778 0.021828378 0.99737382 0
-0.076354429 0.038820218 -0.041679263 1.2984425e-38 -0.05564566 0.005530877 0.9984352 0
-0.068872161 0.040010557 -0.041499998 1.2800031e-38 0 0 1 0
-0.063417159 0.038981218 -0.041487616 1.2892586e-38 -0.0086187581 -0.0074590934 0.99993503 0
-0.056806732 0.038529404 -0.041500095 1.2800749e-38 0.042144444 -0.033142623 0.99856162 0
-0.050893988 0.039245773 -0.041603487 1.3076616e-38 0.0037229832 -0.047001362 0.9988879 0
-0.045337908 0.038965259 -0.041372173 1.1511097e-38 -0.096478596 -0.11149663 0.98907048 0
-0.037725102 0.038010776 -0.041406564 2.7604599e-39 0.095903903 -0.11432688 0.98880321 0
-0.032610178 0.039399114 -0.041614048 1.1023861e-39 -0.010293781 -0.058356237 0.9982428 0
-0.027200483 0.03966552 -0.041091323 7.3468397e-40 -0.11312269 0.0036041718 0.99357444 0
-0.018866112 0.038182996 -0.041240074 5.5101298e-40 0.25375304 -0.20568478 0.94514722 0
-0.016469769 0.041714903 -0.040779285 7.350427e-40 0.25730169 -0.26319745 0.92979729 0
0.095865466 0.040807027 -0.038259983 1.3630157e-38 0.33623064 0.4900665 0.80422872 0
0.1000024 0.03905341 -0.038236905 1.418477e-38 0.20969392 0.34627154 0.91439843 0
0.10448821 0.039441727 -0.038403481 1.4275162e-38 -0.18414493 -0.079552934 0.97967446 0
0.11124326 0.038124636 -0.037828125 1.3906372e-38 0.05267344 -0.034534518 0.99801451 0
0.11736451 0.03980941 -0.037758566 1.3075899e-38 0.007144677 -0.071047977 0.99744731 0
0.12238717 0.039655879 -0.037668977 1.3536878e-38 -0.014114326 -0.0030094723 0.99989587 0
0.13007762 0.03926298 -0.036966067 1.3721627e-38 -0.019003253 -0.026142785 0.99947757 0
0.13543959 0.03777181 -0.03669899 1.326137e-38 -0.020289704 -0.05016372 0.99853492 0
0.14061655 0.040458653 -0.037212338 1.3905305e-38 0.086729579 -0.028333699 0.99582893 0
0.14773694 0.03922205 -0.036620576 1.3814185e-38 -0.092448562 -0.0050667203 0.99570459 0
0.15245295 0.041212235 -0.036286257 1.3537597e-38 -0.058010358 -0.0034986637 0.99830985 0
0.15889868 0.037027918 -0.036017958 1.2707838e-38 -0.012333637 0.015516537 0.9998036 0
0.17226887 0.038373578 -0.036040653 1.3077345e-38 0.0177857 -0.011287951 0.99977809 0
0.17646891 0.038491108 -0.036123835 1.2801834e-38 0.024202831 -0.0062375031 0.99968761 0
0.18164019 0.040032651 -0.036282625 1.3354287e-38 0.031192815 -0.017589662 0.99935859 0
0.18901277 0.039642643 -0.036501046 1.3355729e-38 0.022352576 -0.012094428 0.999677 0
0.19465107 0.040110551 -0.0366344 1.2617088e-38 0.027886834 -0.0027493937 0.99960732 0
0.20022474 0.038925361 -0.036906816 1.2433051e-38 0.051497217 -0.016233616 0.99854124 0
0.21083444 0.037799079 -0.03719461 1.289259e-38 -0.021461485 -0.004999971 0.99975711 0
0.21984069 0.038867194 -0.036590185 1.2616001e-38 -0.048249446 -0.007365149 0.99880815 0
0.22493128 0.038997013 -0.036537182 1.3169176e-38 -0.014040791 0.010142524 0.99984992 0
0.23643947 0.04045875 -0.036365997 1.2155387e-38 -0.010265482 0.076251134 0.9970358 0
0.2437236 0.039399546 -0.036471989 1.2063551e-38 0.11668246 0.044536527 0.99217016 0
0.24928173 0.03942335 -0.037037443 1.1143036e-38 0.052423935 -0.033758156 0.99805415 0
-0.25007811 0.045314498 -0.041921791 7.9172705e-39 -0.0148241 -0.013139318 0.99980378 0
-0.15614192 0.042453945 -0.041999999 1.0588783e-38 0 0 1 0
-0.14060697 0.043009549 -0.041999999 1.0772092e-38 0 0 1 0
-0.078246534 0.044654783 -0.041931029 1.3628715e-38 -0.069809474 0.021228796 0.99733448 0
-0.073805206 0.04315149 -0.041628536 1.2799673e-38 -0.048986118 0.029488364 0.99836409 0
-0.068901122 0.046269137 -0.041557841 1.2615641e-38 -0.015813749 0.038992058 0.99911439 0
-0.064645067 0.044558629 -0.041478943 1.2892588e-38 -0.025192497 -0.0085254032 0.99964625 0
-0.056871671 0.044298071 -0.041372571 1.2893304e-38 0.036904506 -0.047180656 0.99820441 0
-0.051324144 0.043623582 -0.041478675 1.289223e-38 -0.0013073374 -0.06532301 0.99786335 0
-0.046207644 0.044096995 -0.041428152 1.2984423e-38 -0.032941472 -0.0079809818 0.99942535 0
-0.040582687 0.045240823 -0.041061595 1.3446476e-38 -0.097801909 0.1468986 0.98430467 0
-0.033496369 0.045235563 -0.041047759 8.1942259e-39 0.066967487 -0.066128574 0.9955613 0
-0.027852546 0.045398049 -0.041430622 1.3786142e-39 -0.026090372 0.094212011 0.99521023 0
-0.021395033 0.044423327 -0.040746707 6.4284987e-40 -0.074055232 0.0075924275 0.99722528 0
-0.014582107 0.044938155 -0.040257927 9.187151e-40 -0.05873698 -0.11875306 0.99118495 0
-0.010625405 0.045972552 -0.040437184 9.187151e-40 0.36100709 -0.52848572 0.76835984 0
0.092764109 0.045440637 -0.039738193 1.3536151e-38 0.36481535 0.39653298 0.84241992 0
0.098375052 0.04557281 -0.040762521 1.4181164e-38 -0.34528863 0.028730743 0.93805659 0
0.10506964 0.044964273 -0.03834004 1.427372e-38 -0.15935571 0.087651126 0.98332244 0
0.11004865 0.044663347 -0.037850585 1.3997852e-38 -0.083444655 0.0089041013 0.9964726 0
0.11702585 0.04385085 -0.037580732 1.326065e-38 0.0095971795 -0.050575495 0.99867409 0
0.12206078 0.043727882 -0.037614223 1.3721268e-38 0.012487628 -0.015710235 0.9997986 0
0.12967308 0.044681106 -0.036936846 1.2798953e-38 -0.10459585 -0.051909458 0.99315912 0
0.13399394 0.046381604 -0.036597185 1.4090774e-38 0.076445319 -0.097383015 0.99230671 0
0.1421784 0.045304369 -0.036986556 1.3168096e-38 -0.052467238 -0.009222311 0.9985801 0
0.14718342 0.045305762 -0.036545005 1.3814184e-38 -0.065149553 -0.016215535 0.99774379 0
0.15314983 0.044758238 -0.036247812 1.3445044e-38 -0.040087521 -0.0064046062 0.99917567 0
0.17359215 0.047121901 -0.036010981 1.2523809e-38 0.012333649 -0.015516511 0.99980354 0
0.17716251 0.046558686 -0.036063768 1.3539396e-38 0.012333613 -0.015516507 0.99980354 0
0.18411784 0.044079188 -0.036309917 1.3262455e-38 0.036606234 -0.013387075 0.9992401 0
0.18913223 0.043220479 -0.036474798 1.2710003e-38 0.017851647 -0.0050266967 0.99982798 0
0.19529594 0.046598047 -0.036580618 1.3078424e-38 0.025315003 -0.024978446 0.99936742 0
0.20159349 0.045228422 -0.036871955 1.3262453e-38 0.042823281 -0.029232286 0.9986549 0
0.20795909 0.044063076 -0.037032738 1.0772088e-38 0.011104357 -0.02961592 0.99949968 0
0.21403316 0.044068333 -0.036984973 1.3077336e-38 -0.058302559 -0.01477709 0.99818957 0
0.21943237 0.044887532 -0.036527645 1.2707839e-38 -0.044976965 -0.024357261 0.99869108 0
0.22545858 0.044611346 -0.036520705 1.2984426e-38 -0.026899647 0.0036684514 0.9996314 0
0.22939533 0.047035657 -0.036170401 1.1048319e-38 -0.034229767 -0.010853777 0.99935502 0
0.23760121 0.044626415 -0.036503952 1.1601853e-38 0.014291042 0.0092447177 0.99985522 0
0.24357349 0.044904038 -0.036517013 1.2155025e-38 0.01333955 -0.037435476 0.99921 0
0.24970843 0.04481554 -0.036937166 8.6570047e-39 -0.031845845 -0.13347641 0.99054027 0
0.25221249 0.043322202 -0.036533929 3.1332123e-39 -0.34374374 0.037162118 0.93832791 0
-0.074824236 0.050120126 -0.041874867 1.2339055e-38 -0.02408064 -0.0021516087 0.9997077 0
-0.069443047 0.049607128 -0.041675858 1.2155018e-38 -0.049826223 -0.001751085 0.99875641 0
-0.063389935 0.05179096 -0.041369215 1.2707838e-38 -0.044000998 0.016141795 0.99890107 0
-0.058601927 0.052533701 -0.04124482 1.3076975e-38 0.044570949 0.0098134428 0.99895805 0
-0.053033277 0.05095008 -0.041142352 1.2246855e-38 -0.0077865236 -0.0062320391 0.99995029 0
-0.047322489 0.049971759 -0.041319747 1.261636e-38 0.039083429 -0.032536276 0.9987061 0
-0.038249049 0.050537646 -0.041488767 1.3168809e-38 0.0098829241 0.062059373 0.99802351 0
-0.03373652 0.050664637 -0.041416176 1.3261721e-38 0.050997086 0.1221495 0.99120069 0
-0.027196139 0.051516019 -0.041535292 9.3002007e-39 -0.061860867 0.051535793 0.99675339 0
-0.022974554 0.049550746 -0.041408278 1.2864186e-39 -0.11161827 0.045760844 0.99269694 0
-0.015110224 0.051939335 -0.040567547 9.1835636e-40 -0.065516338 0.010857973 0.99779242 0
-0.0078720199 0.049199238 -0.040129133 7.3468397e-40 0.22711572 -0.26969975 0.93577802 0
-0.0026477401 0.052820068 -0.040706128 8.2651947e-40 0.6376096 -0.52890986 0.56009668 0
0.086103752 0.052540623 -0.040602081 1.3265333e-38 0.24582382 0.3921558 0.88644493 0
0.093688391 0.050195247 -0.041390833 1.4642863e-38 -0.086279407 0.020079622 0.99606866 0
0.098046966 0.04991997 -0.040594578 1.4366277e-38 -0.20613132 0.0050605615 0.97851127 0
0.10527867 0.050371677 -0.038898133 1.4182243e-38 -0.10301749 0.094609141 0.99016994 0
0.1113849 0.049856678 -0.037455011 1.3997852e-38 -0.14836563 0.083508112 0.98540044 0
0.11774823 0.050959934 -0.037488535 1.1048679e-38 -0.059340723 -0.021578915 0.99800456 0
0.12352292 0.05095382 -0.037168395 1.2153945e-38 -0.1061755 -0.088462718 0.99040449 0
0.12958755 0.05043963 -0.036356047 1.3168094e-38 -0.060625799 -0.070915744 0.99563825 0
0.13456251 0.050561663 -0.036641661 1.3537235e-38 0.21250176 0.067573659 0.97482145 0
0.14178385 0.051253926 -0.036816787 1.2891869e-38 -0.069196783 -0.037963431 0.99688035 0
0.14690743 0.051096935 -0.036477692 1.353796e-38 -0.043855008 -0.0068559102 0.99901438 0
0.15346983 0.050031111 -0.036200002 1.3353569e-38 0 0 1 0
0.15626253 0.05163129 -0.036158137 1.2984788e-38 -0.055778906 0.0055778669 0.99842757 0
0.17816532 0.052052028 -0.036035746 1.3354649e-38 0.028064696 -0.002965821 0.99960172 0
0.18104626 0.051573131 -0.03611742 1.2616722e-38 0.020111557 -0.0091334432 0.99975604 0
0.18824422 0.050274044 -0.03629395 1.2801834e-38 0.030148687 -0.026719688 0.99918824 0
0.19475684 0.051955134 -0.036430404 1.3539402e-38 0.026614258 -0.017121164 0.99949914 0
0.20083186 0.050801456 -0.03667222 1.2709636e-38 0.040651619 -0.018917473 0.99899435 0
0.20489767 0.052337419 -0.036807988 1.2985867e-38 0.026697196 -0.016947992 0.99949992 0
0.2136289 0.051786315 -0.036864746 1.3169896e-38 -0.029821964 -0.015930522 0.99942821 0
0.21835031 0.051874738 -0.03653064 1.2892949e-38 -0.072608143 -0.015897606 0.99723381 0
0.22627518 0.051804721 -0.036488838 1.2615282e-38 0.045459554 -0.018289488 0.99879873 0
0.23018546 0.050249562 -0.036275074 1.2338694e-38 -0.061790206 0.015206181 0.99797338 0
0.23709033 0.050266381 -0.036459856 1.3261014e-38 0.026860243 -0.016964493 0.99949527 0
0.24446793 0.053471953 -0.03620765 1.2523449e-38 -0.02984751 -0.011293406 0.99949068 0
0.24663906 0.048543427 -0.036193684 1.2615289e-38 0.033369508 -0.10488895 0.99392396 0
-0.079536021 0.05412117 -0.041969299 1.178516e-38 -0.031901378 -0.02535749 0.99916929 0
-0.074266545 0.056958977 -0.041830566 1.160113e-38 -0.028113427 0.0029259524 0.99960047 0
-0.06892176 0.057770103 -0.041599106 1.1877717e-38 -0.039194066 -0.07832516 0.99615717 0
-0.063012578 0.056872334 -0.041509137 1.2431248e-38 -0.034059972 0.034608558 0.99882042 0
-0.057589371 0.058617976 -0.041436676 1.2892586e-38 -0.0019227973 0.023887167 0.99971282 0
-0.051199589 0.059511796 -0.041250274 1.2892228e-38 -0.040976655 0.018369216 0.99899125 0
-0.047249217 0.056053758 -0.041117165 1.3353206e-38 0.012415277 -0.01517423 0.99980778 0
-0.038867559 0.056098182 -0.04126801 1.3261004e-38 0.051340297 -0.044796638 0.99767607 0
-0.033126131 0.056936044 -0.041797619 1.33532e-38 0.095760062 -0.079226859 0.99224651 0
-0.025466461 0.054599658 -0.041492082 1.3813818e-38 -0.1298873 0.10990466 0.98541886 0
-0.021426888 0.057238352 -0.041422926 8.4726092e-39 -0.074211083 0.21235316 0.97437102 0
-0.015701985 0.057497993 -0.040866923 2.8537415e-39 -0.20499031 0.12242996 0.97107667 0
-0.01032302 0.058313403 -0.040423144 1.0101905e-39 0.10670172 0.18903555 0.97615594 0
-0.0028733457 0.057322159 -0.041372571 1.6548354e-39 0.3000949 0.18967703 0.9348613 0
0.0030830796 0.056237102 -0.041805521 1.3540112e-38 0.19055727 0.52691489 0.82828045 0
0.0070788488 0.055472586 -0.041141924 1.344863e-38 -0.26620996 0.32173702 0.90863496 0
0.083417572 0.055335276 -0.041114405 1.3079859e-38 0.15859637 0.31102151 0.93707675 0
0.084682733 0.057220705 -0.041922417 1.371983e-38 0.14736614 0.27704805 0.9494881 0
0.093766652 0.056920744 -0.040915921 1.4182242e-38 -0.3695066 -0.16744475 0.91401702 0
0.09908852 0.056048907 -0.039817978 1.3720902e-38 -0.12457487 -0.011098134 0.99214816 0
0.10542778 0.055594191 -0.039038002 1.3813102e-38 -0.13569391 0.0092628608 0.99070746 0
0.11120474 0.057009369 -0.038198873 1.42748e-38 -0.10346172 0.032812171 0.99409205 0
0.11771754 0.055818588 -0.037381411 1.4182245e-38 -0.14389031 -0.042107936 0.98869741 0
0.12285583 0.057192527 -0.036474027 1.344504e-38 -0.12637022 -0.092455104 0.98766524 0
0.12830451 0.05668968 -0.036250707 1.4090767e-38 0.058825582 0.041999202 0.99738437 0
0.13429123 0.055668864 -0.036941744 1.3814181e-38 0.085783258 0.024746468 0.99600643 0
0.14088599 0.057347648 -0.036666274 1.3444324e-38 -0.047567524 -0.026502157 0.99851632 0
0.14692506 0.055590913 -0.036412928 1.2522366e-38 -0.039792094 -0.032649878 0.99867445 0
0.15271834 0.056900404 -0.036215603 1.3352846e-38 -0.028657446 -0.0041937027 0.9995805 0
0.15842016 0.056454465 -0.036040988 1.3629794e-38 -0.04272021 -0.00023382028 0.99908704 0
0.1799174 0.056403235 -0.036046177 1.3261374e-38 0.012686955 -0.015551769 0.99979854 0
0.18437678 0.055898909 -0.036109574 1.2064266e-38 0.012510309 -0.01553414 0.99980104 0
0.18760891 0.056236397 -0.036155954 1.3446846e-38 0.022149796 -0.01658822 0.99961698 0
0.1946373 0.058294427 -0.036301542 1.2801831e-38 0.012333615 -0.015516507 0.99980354 0
0.20033315 0.057208486 -0.036496785 1.3169898e-38 0.019495716 -0.010696515 0.9997527 0
0.20655264 0.057362363 -0.036711257 1.3078058e-38 0.038899582 -0.032266095 0.99872208 0
0.21364465 0.054916516 -0.036805172 1.1602208e-38 -0.047053788 -0.037401654 0.99819189 0
0.21847314 0.056993335 -0.036427241 1.3076982e-38 -0.084941134 -0.013491995 0.99629462 0
0.22604741 0.057299104 -0.036432829 1.289187e-38 0.014063137 -0.0081765475 0.99986774 0
0.22975171 0.05791337 -0.036363423 1.2707836e-38 -0.071474113 0.029824967 0.99699646 0
0.24320877 0.055527899 -0.036150936 1.2246862e-38 -0.12101478 -0.014457633 0.99254543 0
-0.073807061 0.063052915 -0.041806206 1.1878077e-38 -0.13370086 0.063694581 0.98897272 0
