# .PCD v0.7 - Point Cloud Data file format
VERSION 0.7
FIELDS x y z rgb normal_x normal_y normal_z curvature
SIZE 4 4 4 4 4 4 4 4
TYPE F F F F F F F F
COUNT 1 1 1 1 1 1 1 1
WIDTH 548
HEIGHT 1
VIEWPOINT 0 0 0 1 0 0 0
POINTS 548
DATA ascii
0.18764512 0.10799836 -0.042890735 1.0958279e-38 0.014477902 0.013673621 0.9998017 0
0.19494255 0.10470232 -0.042968925 1.1142673e-38 0.018903077 0.0091221752 0.9997797 0
0.20672898 0.10571965 -0.043262631 1.1880238e-38 0.032832995 -0.0050928057 0.99944788 0
0.21202128 0.10488623 -0.043490037 1.17884e-38 0.050124526 -0.022207765 0.99849606 0
0.21811438 0.10603688 -0.04380748 1.1419258e-38 0.05588904 -0.024217198 0.99814326 0
0.2254695 0.10523666 -0.044030882 1.1050473e-38 0.003022488 -0.031763718 0.99949086 0
0.23102501 0.10482015 -0.044085294 1.1511451e-38 0.010658998 -0.010963546 0.99988312 0
0.2372503 0.10371922 -0.044272259 1.0772808e-38 0.10969391 -0.002040409 0.9939633 0
0.24409215 0.10538509 -0.045452479 1.0864644e-38 0.22227429 -0.080787353 0.97163141 0
0.24894834 0.10379529 -0.045735322 1.1603648e-38 -0.070425168 -0.013056126 0.99743164 0
0.25305861 0.10396097 -0.045823358 1.1140872e-38 0.042482551 0.013389658 0.99900746 0
-0.2706418 0.10816952 -0.043652344 6.7190874e-39 0.29572731 0.10284588 0.94972003 0
-0.26784319 0.11112113 -0.044809237 6.8112844e-39 0.27737918 0.083568655 0.95711917 0
-0.26174173 0.11152652 -0.0453602 7.0885902e-39 -0.027632548 0.042976394 0.99869394 0
-0.25536594 0.11099908 -0.04490694 7.5488481e-39 -0.041341379 0.056781162 0.99753034 0
-0.24886987 0.11115572 -0.044663072 7.0871469e-39 -0.03736788 0.06063614 0.99746025 0
-0.24432397 0.11098766 -0.044502169 7.3644498e-39 -0.040602062 0.07126233 0.99663091 0
-0.23878491 0.11089434 -0.044265855 7.5488481e-39 -0.041700937 0.070771508 0.99662054 0
-0.23108852 0.10978878 -0.04399468 7.7328708e-39 -0.027319046 0.056608781 0.99802262 0
-0.22487395 0.11113672 -0.043888927 8.1016533e-39 -0.023965733 0.06536857 0.99757338 0
-0.21929598 0.11041149 -0.043756645 8.2853313e-39 -0.013376943 0.071430951 0.99735576 0
-0.21316381 0.11035298 -0.043744016 8.0094605e-39 0.015582426 0.059167482 0.99812651 0
-0.20595224 0.10991757 -0.043827534 8.28569e-39 0.019532153 0.055963941 0.99824172 0
-0.20008314 0.11064598 -0.043925125 8.1931357e-39 -0.0042270515 0.03290331 0.99944961 0
-0.19388677 0.11067419 -0.043928966 7.4555692e-39 0.00053018 0.037520777 0.99929571 0
-0.18872766 0.10984685 -0.043904975 7.9158285e-39 0.0010083619 0.037841812 0.99928325 0
-0.18308082 0.11107716 -0.043999292 8.9299805e-39 0.035952616 0.034953918 0.99874204 0
-0.17802016 0.11214587 -0.04416446 9.1143703e-39 0.019288227 0.037253104 0.9991197 0
-0.17050371 0.11122279 -0.044258662 9.2983986e-39 0.025568536 0.038228106 0.9989419 0
-0.16464788 0.11033746 -0.044309329 8.7455878e-39 0.00053018093 0.037520777 0.99929571 0
-0.15832303 0.11139955 -0.044440903 8.8370618e-39 0.0069040032 0.051098328 0.99866974 0
-0.15176199 0.11042542 -0.044387065 9.2069177e-39 0.00079206284 0.056237627 0.99841714 0
-0.14604139 0.11138055 -0.044472527 9.5742667e-39 0.00092353509 0.065569833 0.99784756 0
-0.14269629 0.10806361 -0.044261273 9.1143689e-39 0.00080324418 0.056226157 0.99841774 0
-0.13545975 0.11275221 -0.044532552 9.5742611e-39 0.0012106289 0.057032421 0.9983716 0
-0.13089077 0.11081165 -0.044428118 9.7575761e-39 0.0016062949 0.057026755 0.99837136 0
-0.12250622 0.11172633 -0.044409655 9.7579363e-39 -0.006224277 0.056825534 0.99836475 0
-0.11599495 0.11190959 -0.044411078 1.0035241e-38 0.010238367 0.056019578 0.99837708 0
-0.10971411 0.11107092 -0.044404462 9.8501333e-39 0.00052832119 0.037522685 0.99929565 0
-0.10414804 0.1108003 -0.04448295 1.0126359e-38 0.019283401 0.037651602 0.99910486 0
-0.09930712 0.11040888 -0.044499561 1.0034523e-38 0.029127035 0.027707284 0.99919164 0
-0.093281381 0.11078332 -0.044694629 1.0218553e-38 0.021957925 0.035012566 0.99914563 0
-0.087249622 0.1114727 -0.044836737 1.0586979e-38 0.014471199 0.027951453 0.99950457 0
-0.081366293 0.10968102 -0.044887383 9.2955204e-39 0.02853795 0.027745215 0.99920762 0
-0.07564918 0.10937331 -0.045027595 9.7579377e-39 0.019158769 0.027883189 0.99942756 0
-0.067996264 0.11266476 -0.045225315 1.0310754e-38 0.01548203 0.042370833 0.99898201 0
-0.06166606 0.11179948 -0.045198966 9.1122053e-39 0.014650787 0.042005006 0.99900997 0
-0.057702336 0.11186587 -0.045344293 9.7579433e-39 0.042764079 0.041576166 0.99821979 0
-0.050346274 0.11131672 -0.045158137 9.9423275e-39 -0.022325803 0.079909325 0.99655217 0
-0.045227785 0.11038129 -0.045049325 1.0126723e-38 0.036901414 0.062565267 0.99735844 0
-0.03953822 0.11097489 -0.04545347 9.5735464e-39 0.12649687 0.040756881 0.99112946 0
-0.033545624 0.11138049 -0.046115253 9.8508479e-39 0.085571617 0.016101938 0.99620193 0
-0.026016165 0.1112017 -0.046959326 1.0034883e-38 0.10562407 -0.016388737 0.99427104 0
-0.015087341 0.11256216 -0.047532801 1.0588058e-38 0.013767442 -0.014479783 0.99980038 0
-0.0079738321 0.11087646 -0.047496103 1.0496938e-38 -0.033960741 0.011908971 0.99935222 0
-0.0037575322 0.10942382 -0.047205575 1.0405822e-38 -0.041793313 0.01486841 0.99901569 0
0.0026795915 0.11040534 -0.046920337 1.0220715e-38 0.067037828 0.019111942 0.99756736 0
0.0062371902 0.11048746 -0.047718912 8.9296259e-39 -0.27102426 -0.10400647 0.95693707 0
0.088090278 0.11136188 -0.045595031 1.040764e-38 0.12171654 0.38804528 0.91356772 0
0.094205819 0.10964064 -0.045844197 1.0405471e-38 0.049160533 0.31706813 0.94712776 0
0.099935383 0.11075267 -0.046889801 1.0497303e-38 0.050840352 0.37883523 0.9240666 0
0.10490461 0.11114874 -0.047302254 1.1050834e-38 -0.12223747 0.10048635 0.98740089 0
0.11107745 0.1113919 -0.046265364 1.095864e-38 -0.15266746 -0.0032537309 0.98827231 0
0.11621841 0.11208813 -0.045679655 1.0773887e-38 -0.08102525 0.019308489 0.99652505 0
0.12245538 0.11197436 -0.04522315 1.0866443e-38 -0.065660164 0.029552333 0.99740428 0
0.12897383 0.11181943 -0.044670049 1.0589498e-38 -0.090719469 0.022425765 0.99562401 0
0.13648663 0.11115669 -0.04411212 1.1419976e-38 -0.055952188 0.019675078 0.99823952 0
0.14140202 0.10975805 -0.043790799 1.105012e-38 -0.051540632 0.015001492 0.99855822 0
0.14782712 0.11104086 -0.043491367 1.1511458e-38 -0.042198811 0.00059435924 0.99910909 0
0.15270799 0.10970378 -0.043298613 1.1050476e-38 -0.042135444 0.0052840905 0.99909788 0
0.15888049 0.10994786 -0.043053407 1.1050474e-38 -0.042004917 0.014662337 0.99900985 0
0.16411906 0.11134093 -0.042988446 1.0589499e-38 0.0072396104 0.0068374034 0.99995047 0
0.16886175 0.11071337 -0.04286775 1.0681693e-38 -0.013851966 0.014678263 0.99979633 0
0.17660326 0.11028388 -0.042837922 1.1142673e-38 -0.0092539778 0.0095183617 0.99991184 0
0.1834584 0.11190563 -0.042880371 1.1327064e-38 0.01070809 0.010410646 0.99988848 0
0.18777332 0.11078118 -0.0429 1.132778e-38 0 0 1 0
0.19531056 0.11087337 -0.043034531 1.114267e-38 0.021511231 0.0066333213 0.99974662 0
0.2006833 0.10990029 -0.043107942 1.1327064e-38 0.028149599 -0.00039931142 0.99960363 0
0.20713508 0.11070871 -0.043269727 1.1788042e-38 0.028129932 -0.0003962027 0.99960417 0
0.21340306 0.11102626 -0.043472651 1.160365e-38 0.038029332 -0.010314256 0.99922341 0
0.22503901 0.10995352 -0.043938119 1.114267e-38 0.018227186 -0.019299384 0.99964762 0
0.23128428 0.112028 -0.043932833 1.1142669e-38 0.013572245 -0.028448172 0.99950314 0
0.23684287 0.11201758 -0.044173662 1.1234507e-38 0.074924596 -0.020178542 0.99698502 0
0.24201681 0.11221591 -0.044727083 1.1234508e-38 0.12566678 -0.031181164 0.99158239 0
0.24961174 0.11109632 -0.045571133 1.1509297e-38 -0.00029397843 -0.04251688 0.99909568 0
0.25531664 0.11074179 -0.045743942 1.1233429e-38 0.040625151 -0.064357214 0.99709964 0
-0.26968905 0.11765672 -0.045188457 6.626896e-39 0.15313569 0.17589247 0.97242546 0
-0.2614432 0.11606178 -0.045588214 6.9045605e-39 -0.041964054 0.043208439 0.99818438 0
-0.25387064 0.1162887 -0.045142662 6.7198063e-39 -0.036747936 0.038965829 0.99856466 0
-0.2496109 0.11774167 -0.045036301 6.8116418e-39 -0.045060612 0.039639395 0.9981975 0
-0.2428543 0.11716586 -0.044816136 6.9031171e-39 -0.032191075 0.056671884 0.99787372 0
-0.23559794 0.11659122 -0.04452141 6.9034787e-39 -0.027088311 0.070981674 0.99710977 0
-0.23195 0.11809372 -0.044555962 7.6413954e-39 -0.031622399 0.062122714 0.99756742 0
-0.22440502 0.11771178 -0.044343945 6.626882e-39 -0.012035662 0.071412504 0.9973743 0
-0.21850049 0.11769162 -0.044265188 8.3778815e-39 -0.012801246 0.070672557 0.99741745 0
-0.21282172 0.1150109 -0.044028111 7.6396018e-39 0.0011857947 0.084190108 0.99644905 0
-0.20654997 0.1159598 -0.044160016 8.1012988e-39 0.0066708634 0.061748613 0.99806941 0
-0.20067111 0.11754715 -0.044277109 8.2874935e-39 0.016047535 0.071009941 0.99734652 0
-0.1945743 0.11562087 -0.044135191 8.3786031e-39 -0.0062208255 0.064236939 0.99791527 0
-0.18813929 0.11693028 -0.044224083 8.3768067e-39 -0.002459029 0.053170931 0.99858242 0
-0.1833311 0.11653393 -0.044200357 9.1150878e-39 0.00080324261 0.056226157 0.99841774 0
-0.17662108 0.11788633 -0.044434387 8.9303364e-39 0.02178243 0.048916932 0.99856526 0
-0.17233218 0.11551812 -0.0443918 9.6675399e-39 0.014662424 0.042004827 0.99900985 0
-0.16391547 0.11793265 -0.044689529 9.2065645e-39 0.023975592 0.053353902 0.9982878 0
-0.15513073 0.11448141 -0.044612851 9.2069163e-39 0.00079203129 0.056237597 0.99841714 0
-0.14822109 0.11572713 -0.044715475 9.113643e-39 0.010030929 0.046744857 0.99885648 0
-0.14247224 0.11805812 -0.044825859 9.3895139e-39 -0.027315382 0.056611251 0.99802256 0
-0.13409841 0.11700799 -0.044776868 8.8366946e-39 0.0013349983 0.056496825 0.99840188 0
-0.12765926 0.11578928 -0.044700287 1.0034883e-38 -0.006237301 0.056335267 0.9983924 0
-0.12302208 0.11759382 -0.04474473 9.6657406e-39 -0.01326629 0.056430295 0.99831843 0
-0.11813351 0.11738924 -0.044713229 9.942689e-39 0.010162286 0.056103487 0.99837321 0
-0.11081152 0.11739966 -0.044771511 9.9426876e-39 0.0015163283 0.06391415 0.99795425 0
-0.10606363 0.11914974 -0.044900674 9.7582964e-39 0.00099248136 0.047197137 0.99888504 0
-0.10086816 0.11594718 -0.044751465 1.0034522e-38 0.014790437 0.051890574 0.9985432 0
-0.092656434 0.11737493 -0.044929367 9.8501347e-39 0.014603927 0.03256451 0.99936295 0
-0.087632887 0.11798107 -0.045013636 1.0680253e-38 0.01507115 0.027730381 0.99950182 0
-0.080496266 0.11684337 -0.045111459 9.7579391e-39 0.028342029 0.027945669 0.99920756 0
-0.07550633 0.11564676 -0.045219094 9.5735464e-39 0.029059419 0.037502989 0.99887383 0
-0.068839304 0.1167703 -0.045386214 1.0311472e-38 0.015026391 0.042149592 0.99899834 0
-0.062500753 0.11737642 -0.045491371 9.483513e-39 0.0055330554 0.06083107 0.99813277 0
-0.054581311 0.11837909 -0.045664761 9.3895139e-39 0.014669992 0.042604238 0.99898434 0
-0.050885998 0.11684564 -0.045607742 9.2047625e-39 -0.0054919543 0.063899279 0.99794126 0
-0.045036644 0.1156114 -0.04540801 9.205124e-39 -0.01200842 0.071383946 0.99737662 0
-0.038482286 0.11534304 -0.045764804 1.0034883e-38 0.092211336 0.047242723 0.99461812 0
-0.033165712 0.11797068 -0.046135712 9.8515696e-39 0.046368599 -0.0096402885 0.99887788 0
-0.026295342 0.11741576 -0.046438262 1.0035964e-38 0.11321976 -0.31617814 0.94191962 0
-0.019301256 0.11823511 -0.047265396 9.9434065e-39 0.14769365 -0.14137249 0.97887713 0
-0.01478608 0.11877927 -0.047424871 1.0311111e-38 0.020770637 -0.0219924 0.9995423 0
-0.010622885 0.11948708 -0.047493722 1.0312189e-38 -0.021391302 -0.020797089 0.99955487 0
-0.0031632704 0.11707703 -0.047375478 1.0773527e-38 -1.1718289e-08 1.4924787e-08 1 0
0.0035565109 0.11654729 -0.047017936 1.0313267e-38 -0.054039769 0.084839493 0.99492812 0
0.0090069734 0.11804598 -0.046322722 1.0774606e-38 -0.30579633 -0.012378718 0.95201647 0
0.013564831 0.11844467 -0.044864438 9.6668196e-39 -0.19443625 0.24261978 0.95043683 0
0.1111122 0.11670613 -0.046310753 1.095864e-38 -0.16419771 0.024424989 0.98612493 0
0.11501049 0.11931598 -0.046043135 1.0497303e-38 -0.11813957 0.072664335 0.99033475 0
0.12331855 0.11705037 -0.045299742 1.1512174e-38 -0.084516123 0.030197306 0.99596441 0
0.12837379 0.11689784 -0.044822454 1.0682053e-38 -0.098114707 0.016088057 0.99504501 0
0.13455591 0.11694983 -0.044305295 1.0497299e-38 -0.060608339 0.024341166 0.99786484 0
0.14195973 0.11688987 -0.04388063 1.077389e-38 -0.051548 0.014990019 0.99855798 0
0.14845465 0.1161311 -0.043503881 1.1327064e-38 -0.051932864 0.015386761 0.99853206 0
0.15343857 0.11620937 -0.043279767 1.0866086e-38 -0.037377317 0.01004978 0.99925065 0
0.15767838 0.11618086 -0.043176174 1.1234868e-38 -0.032562517 0.014604004 0.99936295 0
0.16542475 0.11747372 -0.043005098 1.1142315e-38 -0.013941433 0.0049604541 0.99989057 0
0.17110507 0.11557359 -0.042914931 1.0589142e-38 -0.0046271561 0.0047593624 0.99997801 0
0.17689651 0.1173146 -0.042896625 1.141926e-38 -0.0046269889 0.0047591906 0.99997801 0
0.18384461 0.11787549 -0.042940576 1.1419258e-38 -0.0044262288 0.014213505 0.99988919 0
0.19041717 0.11687377 -0.042953581 1.1419258e-38 0.014478392 0.014076207 0.99979609 0
0.19453762 0.11748908 -0.043029588 1.1327063e-38 0.028412126 -0.00067201315 0.99959612 0
0.2007255 0.11716466 -0.043124225 1.1419257e-38 0.014176803 -0.00030021236 0.99989945 0
0.2073141 0.11720727 -0.043215178 1.1511454e-38 0.011171742 -0.0057919216 0.99992085 0
0.21258749 0.11793915 -0.043305445 1.1511092e-38 0.027606947 -0.028671345 0.99920756 0
0.21984959 0.11570194 -0.043651015 1.1234867e-38 0.03679388 -0.038958263 0.99856323 0
0.22401327 0.11655077 -0.04373436 1.0958643e-38 0.0088489503 -0.037651576 0.99925172 0
0.23081231 0.11759566 -0.04376553 1.1326704e-38 -0.00039676778 -0.028152484 0.99960363 0
0.23618555 0.11824417 -0.043921784 1.1050116e-38 0.076805219 -0.022121012 0.99680072 0
0.24322844 0.11821625 -0.044664145 1.1050116e-38 0.16416126 -0.034936398 0.98581463 0
0.24899165 0.11752796 -0.045241397 1.1418178e-38 -0.022183171 -0.049303874 0.99853742 0
0.25292969 0.11495365 -0.045392491 1.0957197e-38 0.012821881 -0.085575789 0.9962492 0
0.25839207 0.11908538 -0.045264665 1.1325266e-38 -0.00059448549 -0.042207677 0.99910873 0
-0.27282226 0.1206044 -0.043719042 6.7194447e-39 0.44788182 0.10515154 0.88788795 0
-0.26605716 0.12331116 -0.04606048 6.350665e-39 -0.070726573 0.055283979 0.99596256 0
-0.25940028 0.12232479 -0.04548509 6.9034829e-39 -0.070830576 -0.022728745 0.9972294 0
-0.25490057 0.12188211 -0.045307245 6.626889e-39 0.00029314763 0.028247224 0.99960095 0
-0.25020888 0.12383066 -0.045224309 6.6268918e-39 -0.028134838 0.028938586 0.9991852 0
-0.24451609 0.12216484 -0.045030463 7.2715395e-39 -0.013743871 0.023657605 0.99962562 0
-0.23930247 0.12274288 -0.044988681 6.6272477e-39 -0.027745215 0.02853795 0.99920762 0
-0.22999807 0.12264422 -0.044711757 7.8250678e-39 -0.01828385 0.028870255 0.99941587 0
-0.22404325 0.12169782 -0.044568852 7.8250678e-39 -0.0087084165 0.047006693 0.9988566 0
-0.22044526 0.12268209 -0.044594556 7.9165446e-39 0.00059447641 0.042207152 0.99910873 0
-0.21341336 0.12317228 -0.044615995 7.9169033e-39 0.00079193531 0.056226514 0.99841774 0
-0.2052644 0.12321854 -0.044655934 8.1016603e-39 -0.0029263641 0.061809253 0.99808377 0
-0.20124744 0.1238588 -0.044698674 9.0254187e-39 0.00079203409 0.056237657 0.99841714 0
-0.194929 0.12343335 -0.044634089 8.1934972e-39 -0.013217682 0.05962665 0.99813318 0
-0.18905182 0.1230208 -0.044576574 8.7459507e-39 0.005539902 0.060837731 0.99813229 0
-0.18199055 0.12306961 -0.044602703 9.0228935e-39 0.012058794 0.073809974 0.99719942 0
-0.17771664 0.1217557 -0.044646405 8.8370646e-39 0.029628005 0.084523037 0.99598092 0
-0.17016439 0.12311735 -0.044872075 9.3913131e-39 0.016233919 0.087679885 0.99601644 0
-0.16415399 0.12341181 -0.04499156 8.1002142e-39 0.028899468 0.055819999 0.9980225 0
-0.15847374 0.12199249 -0.045002952 9.1143661e-39 0.0077793445 0.049070582 0.99876505 0
-0.14783077 0.12300745 -0.045064237 9.2983972e-39 -0.0087105101 0.047008783 0.99885648 0
-0.1433205 0.12451341 -0.045225359 9.3898754e-39 0.030457644 0.084918082 0.99592233 0
-0.13558361 0.12461703 -0.045198709 9.0207299e-39 -0.0060301269 0.04930646 0.99876553 0
-0.12836137 0.12294689 -0.045073889 9.297321e-39 0.00069322583 0.049218234 0.99878776 0
-0.12057457 0.12317101 -0.045035437 1.0219275e-38 0.00079262129 0.056238111 0.99841708 0
-0.11722279 0.12355422 -0.045067549 9.6661008e-39 0.0084384643 0.04981349 0.99872291 0
-0.11307687 0.12347816 -0.045085847 9.7582978e-39 -0.0060336269 0.049619976 0.99874997 0
-0.10396881 0.123302 -0.045061693 9.5739051e-39 0.00080340559 0.056237429 0.99841714 0
-0.099223942 0.1224649 -0.045041483 9.6661008e-39 0.00052839646 0.037517659 0.99929583 0
-0.093874931 0.1226638 -0.045076955 9.3887964e-39 0.0099102641 0.037384786 0.99925178 0
-0.086578913 0.12490894 -0.045264017 9.1122081e-39 0.014669896 0.04260429 0.99898434 0
-0.081366643 0.12183584 -0.045253463 9.9419716e-39 0.031773303 0.039087992 0.99873054 0
-0.074982561 0.1231363 -0.04550856 1.0034525e-38 0.014623329 0.028093172 0.99949837 0
-0.062468056 0.12259115 -0.04579147 9.1132885e-39 0.02912084 0.04167432 0.99870682 0
-0.056857612 0.12166092 -0.045813132 9.8501347e-39 0.001187981 0.056232009 0.99841702 0
-0.051463589 0.12277153 -0.04592105 9.7579377e-39 0.0082637211 0.043617848 0.99901414 0
-0.046016406 0.12342735 -0.04596287 9.3895139e-39 -0.013361156 0.04834139 0.99874151 0
-0.039704338 0.12227117 -0.046009261 1.0311469e-38 0.033562638 0.032362673 0.99891257 0
-0.033504114 0.12227236 -0.046116915 9.850492e-39 0.01791738 0.0014535025 0.99983841 0
-0.027357399 0.1230102 -0.046014581 1.0035243e-38 -0.15278803 0.041517336 0.98738652 0
-0.021546358 0.12310465 -0.045911733 9.9426862e-39 0.11451207 -0.063430056 0.99139476 0
-0.015260051 0.12374339 -0.047132164 9.759374e-39 0.13578106 -0.11290806 0.98428416 0
-0.0089850361 0.12248825 -0.047297537 1.0404745e-38 -0.021985369 -0.048705641 0.99857122 0
-0.0022261471 0.12436203 -0.047159955 1.0128515e-38 0.0031219353 -0.024729537 0.99968928 0
0.0045567574 0.12255594 -0.04718402 1.0220714e-38 -0.049802493 -0.0060173031 0.99874097 0
0.0094467299 0.12251397 -0.046551745 1.0773889e-38 -0.16610511 0.14297375 0.97568828 0
0.015015243 0.1244275 -0.045919195 1.0035602e-38 -0.2215413 0.17781366 0.95880222 0
0.10608194 0.12209756 -0.0473154 1.0312914e-38 -0.21342924 0.013664609 0.97686297 0
0.11139008 0.12327173 -0.046619326 1.0681696e-38 -0.10049601 0.046331327 0.99385816 0
0.1180291 0.12311317 -0.045930643 1.0497305e-38 -0.091064431 0.019629579 0.99565154 0
0.1240384 0.12441729 -0.045374285 1.0497663e-38 -0.097778954 0.015502409 0.99508744 0
0.12988269 0.12066057 -0.044771228 1.132742e-38 -0.08492966 0.030446326 0.99592167 0
0.13678479 0.12297994 -0.044283528 1.123487e-38 -0.070274889 0.015287984 0.99741054 0
0.14177322 0.12404686 -0.043983847 9.9441268e-39 -0.042004827 0.014662424 0.99900985 0
0.14674437 0.12280774 -0.043737248 1.114303e-38 -0.051616464 0.015058523 0.99855345 0
0.15190324 0.12284745 -0.04344923 1.1050479e-38 -0.048031196 0.0096466895 0.99879926 0
0.15920459 0.12401861 -0.04319169 1.105084e-38 -0.028210128 0.0099841785 0.99955213 0
0.16388403 0.12326051 -0.043051489 1.0958282e-38 -0.035080001 0.0075298469 0.99935615 0
0.17115912 0.12270232 -0.042991608 1.1419261e-38 -0.013839409 0.014317555 0.99980175 0
0.17874785 0.1231066 -0.042904831 1.0773889e-38 -5.0224156e-05 0.0071944119 0.99997413 0
0.18277419 0.12256774 -0.04297268 1.1234866e-38 0.013674114 -0.014478472 0.9998017 0
0.18939637 0.12360994 -0.042991698 1.077389e-38 0.0048263487 0.0046922811 0.99997729 0
0.19404773 0.12161045 -0.043020763 1.1234505e-38 0.0069405143 -0.0071388176 0.99995047 0
0.20042408 0.12233756 -0.043104727 1.1327058e-38 0.0044933199 -0.014142385 0.99988991 0
0.20714562 0.12466196 -0.043092005 1.1327417e-38 0.0066360608 -0.0213135 0.99975085 0
0.21313632 0.12234504 -0.043213636 1.1327063e-38 0.020503791 -0.021709919 0.9995541 0
0.21887515 0.12341055 -0.043383349 1.1327421e-38 0.046872508 -0.019677825 0.998707 0
0.22478706 0.12433768 -0.043478068 9.8519368e-39 -0.00040153693 -0.028146461 0.99960375 0
0.22950417 0.12317637 -0.043595165 1.0497661e-38 0.018495787 -0.028545272 0.99942136 0
0.23751462 0.1232864 -0.043867171 1.1234508e-38 0.064488813 -0.038851365 0.99716187 0
0.24283987 0.12332204 -0.044364713 1.0035964e-38 0.11103648 -0.072546549 0.99116492 0
0.24920356 0.12403428 -0.044832043 1.0957201e-38 -0.01476345 -0.084381349 0.99632418 0
0.25519827 0.12294295 -0.044874094 1.1049395e-38 0.090015903 -0.064191997 0.99386948 0
0.26094082 0.12464108 -0.045004595 1.0587701e-38 -0.00079209538 -0.056237705 0.99841714 0
-0.27184173 0.12930173 -0.044884592 6.3513881e-39 0.4353227 0.10255812 0.89441377 0
-0.26837394 0.12798814 -0.045916211 6.4428621e-39 0.09608873 -0.11866593 0.98827392 0
-0.26065615 0.12727177 -0.045549255 6.9960372e-39 -0.012330977 -0.070827059 0.99741238 0
-0.25542036 0.12852204 -0.045467466 6.8109257e-39 -0.065915473 -0.026903437 0.99746251 0
-0.24872828 0.12844099 -0.045252938 6.9956799e-39 -0.0047596833 -0.0044918815 0.99997854 0
-0.24338914 0.12819166 -0.045132872 6.9031213e-39 -0.024784306 0.01090984 0.99963325 0
-0.23630616 0.12887886 -0.044998851 7.2718997e-39 -0.041933101 0.007791792 0.99909002 0
-0.23218657 0.12888412 -0.044880003 7.4559252e-39 -0.004627768 0.0047599818 0.99997801 0
-0.22478616 0.12935817 -0.044724111 8.0094591e-39 -0.014174988 -0.0068409303 0.99987614 0
-0.21951246 0.13031746 -0.044768557 8.0087402e-39 -0.0093872743 0.00013221735 0.99995589 0
-0.21252827 0.12921372 -0.044826865 7.5481222e-39 0.021316098 0.0068401876 0.99974942 0
-0.20730127 0.12944631 -0.044883192 8.1012988e-39 0.014476909 0.014074427 0.99979609 0
-0.20154642 0.12711573 -0.044852734 8.3793248e-39 0.00060297363 0.042199079 0.99910903 0
-0.19525211 0.13000469 -0.044941362 8.0091032e-39 -0.0041569863 0.032831673 0.99945223 0
-0.18978603 0.12844174 -0.044902693 8.7455934e-39 0.024282137 0.060556084 0.99786943 0
-0.18286619 0.13047445 -0.045233704 8.6537523e-39 0.033120662 0.05293709 0.99804848 0
-0.17485628 0.12960431 -0.0454491 8.3760822e-39 0.050967306 0.091109529 0.99453574 0
-0.17319094 0.13163716 -0.04564257 9.0228921e-39 0.0080755642 0.048766609 0.99877751 0
-0.16589928 0.12841849 -0.045377403 8.8374219e-39 0.0013256 0.093463719 0.99562186 0
-0.15032479 0.12692268 -0.045326553 9.6675399e-39 0.0085600791 0.10634784 0.9942922 0
-0.14832698 0.1293034 -0.045589376 9.0203726e-39 0.011750928 0.099243656 0.99499369 0
-0.14096662 0.12902384 -0.045567732 9.112927e-39 -0.013052692 0.070675693 0.99741399 0
-0.13305584 0.12901214 -0.045463037 8.744499e-39 -0.013242563 0.070428245 0.99742895 0
-0.12108776 0.13172939 -0.045602031 9.3891607e-39 0.0010032909 0.071232378 0.99745929 0
-0.11588852 0.12644669 -0.045228172 9.5742639e-39 0.0011992536 0.056632187 0.99839443 0
-0.1088444 0.12815274 -0.045330998 9.6661008e-39 0.00080340565 0.056237433 0.99841714 0
-0.10561661 0.12971739 -0.045432594 9.1129256e-39 0.0012027369 0.084189869 0.99644905 0
-0.1011037 0.12915671 -0.0453941 9.4813522e-39 0.0007977311 0.056637958 0.99839449 0
-0.092225008 0.12913144 -0.045370501 9.2969581e-39 0.0058940137 0.042732906 0.99906915 0
-0.089249209 0.12932234 -0.045416605 8.7441445e-39 0.02890002 0.055819504 0.99802256 0
-0.078327365 0.12822974 -0.045545466 9.9419674e-39 0.014478472 0.0136741 0.9998017 0
-0.068265878 0.12815045 -0.045777362 9.480992e-39 0.02863902 0.02794121 0.99919921 0
-0.061953027 0.13005699 -0.046056982 1.0034525e-38 0.036282711 0.014576018 0.99923527 0
-0.05618139 0.12883259 -0.046123613 9.1125696e-39 0.012659783 0.024749713 0.99961358 0
-0.051453494 0.12765476 -0.046139989 9.389874e-39 0.0025619806 0.07378342 0.997271 0
-0.045170829 0.12802808 -0.046146382 9.7582964e-39 0.0063832672 0.047445536 0.9988535 0
-0.03936791 0.12741417 -0.046143245 9.6657392e-39 0.00043545233 0.03878656 0.99924749 0
-0.033418678 0.12952244 -0.046186239 9.113643e-39 -0.020477368 0.03594707 0.99914384 0
-0.026537396 0.1281139 -0.046313398 9.8504906e-39 -0.0010063519 0.051707868 0.99866176 0
-0.01957817 0.12861173 -0.046109885 1.0404025e-38 0.0086746272 0.05396856 0.998505 0
-0.01498127 0.12974666 -0.046452984 1.0036321e-38 0.12154063 -0.075288981 0.98972696 0
-0.0079065515 0.12895073 -0.046951834 9.4827899e-39 0.013162843 -0.070531026 0.9974227 0
-0.0021300151 0.12930101 -0.047193073 1.0036321e-38 0.013935578 -0.014755329 0.99979401 0
0.0031700362 0.12825617 -0.04719694 1.0312908e-38 0.010757982 0.010459419 0.99988747 0
0.0083742235 0.12739435 -0.047097445 9.390953e-39 -0.034453616 0.049684662 0.9981705 0
0.015554453 0.12879349 -0.046448629 1.0128518e-38 -0.14027257 0.14417376 0.97955984 0
0.021750031 0.12879525 -0.045644093 9.9448428e-39 -0.11749428 0.1406133 0.98306817 0
0.024270307 0.13181606 -0.045688275 9.9459246e-39 -0.16399258 0.1143214 0.97981483 0
0.10512012 0.13014701 -0.047540769 1.0405112e-38 -0.12011515 0.0020926995 0.99275774 0
0.11148902 0.12703703 -0.046730772 1.0773892e-38 -0.11227995 0.030355642 0.99321288 0
0.11716887 0.12890036 -0.046140999 1.0497303e-38 -0.1130156 0.020968294 0.99337196 0
0.12350048 0.12736768 -0.045472912 1.1050481e-38 -0.097889148 0.015394158 0.99507827 0
0.12845555 0.12933892 -0.045062747 1.1050477e-38 -0.08124572 0.0095688114 0.99664819 0
0.13482802 0.12866119 -0.044515483 1.0681334e-38 -0.081845917 0.015867889 0.99651867 0
0.14179188 0.129518 -0.044076301 1.0959e-38 -0.056815602 0.015072391 0.99827093 0
0.14634797 0.12850058 -0.043809049 1.1327064e-38 -0.048791081 0.021897176 0.99856895 0
0.15319748 0.13073203 -0.043550074 1.0682055e-38 -0.055956181 0.01953363 0.99824214 0
0.15803173 0.12758157 -0.043266762 1.0958282e-38 -0.028338378 0.014875297 0.9994877 0
0.16528058 0.12845531 -0.043129504 1.0589498e-38 -0.0032685485 0.017645791 0.99983895 0
0.16970766 0.12871201 -0.043091863 1.114267e-38 -0.013941449 0.0049604485 0.99989057 0
0.1765078 0.12973402 -0.042997859 1.0773887e-38 -0.014028118 0.0073919231 0.99987429 0
0.18346022 0.12927434 -0.042938143 1.0866801e-38 -9.769536e-05 0.00010048709 1 0
0.1898998 0.12835544 -0.042980406 1.114267e-38 0.010411029 -0.010708492 0.99988848 0
0.19590202 0.12987924 -0.042992871 1.0866084e-38 0.0070412941 -0.007242478 0.99994898 0
0.20082898 0.12950397 -0.043013487 1.1143029e-38 -0.0049587665 -0.014079073 0.9998886 0
0.20657261 0.12805398 -0.043023497 1.132742e-38 0.013800111 -0.014611896 0.999798 0
0.21215387 0.12997185 -0.043047559 1.1419614e-38 0.013740218 -0.023657728 0.99962574 0
0.21889292 0.12792484 -0.043281808 1.0589859e-38 0.031203983 -0.032095533 0.99899763 0
0.22457369 0.12862469 -0.043363951 1.0497302e-38 0.013773234 -0.028447943 0.99950039 0
0.2316283 0.12843375 -0.043473456 1.1142673e-38 0.020583477 -0.028738415 0.99937499 0
0.23575875 0.12978292 -0.043515354 1.0682055e-38 0.062708706 -0.050905865 0.99673277 0
0.243563 0.1292116 -0.044139907 1.0681333e-38 0.093954802 -0.039857309 0.99477828 0
0.25029132 0.12842213 -0.044532683 1.1234147e-38 0.0038061338 -0.060803477 0.99814248 0
0.25462931 0.1295134 -0.044255972 1.0865723e-38 -0.030271791 -0.083317518 0.99606311 0
0.26061261 0.12753978 -0.044742979 1.0680967e-38 0.073749401 -0.13415703 0.98821199 0
-0.2744748 0.13481586 -0.042708397 6.4439439e-39 0.44917887 -0.34324798 0.8248753 0
-0.26803339 0.13603628 -0.043736007 6.3513867e-39 0.078824542 -0.3155413 0.94563228 0
-0.26100558 0.13436598 -0.04443372 6.1673584e-39 0.056754563 -0.2578522 0.96451604 0
-0.25359938 0.13264346 -0.045117021 6.8109243e-39 0.024825368 -0.14081801 0.98972416 0
-0.2494797 0.13468568 -0.045013487 6.627612e-39 0.054719131 -0.10680594 0.99277306 0
-0.24248111 0.1347643 -0.04508137 6.903836e-39 0.01682901 -0.046422713 0.99878013 0
-0.23634142 0.1352457 -0.044925291 6.9949484e-39 -0.037773907 -0.018224597 0.99912006 0
-0.23101148 0.13297793 -0.044858515 7.1796984e-39 -0.014468137 -0.027951228 0.99950457 0
-0.22626552 0.13477436 -0.044700056 7.8254308e-39 0.014271536 0.013875099 0.99980187 0
-0.2193867 0.13588139 -0.044800863 7.4566454e-39 -0.0090474617 0.019103916 0.9997766 0
-0.21426037 0.13339777 -0.044823416 7.9169075e-39 0.042890996 0.013350056 0.9989906 0
-0.20868076 0.13616903 -0.044901922 8.2864061e-39 0.0095141474 0.0092498623 0.9999119 0
-0.20060538 0.13370003 -0.045004796 8.3793262e-39 0.0048167305 0.014081103 0.99988925 0
-0.19415641 0.13640794 -0.04514822 8.2853341e-39 -0.013981869 0.023817252 0.99961853 0
-0.1883442 0.13528191 -0.045131132 9.1143731e-39 0.032753933 -0.0051566479 0.99945021 0
-0.18223053 0.13579352 -0.045319751 8.7459493e-39 0.04197178 -0.014661732 0.99901116 0
-0.17684363 0.13464053 -0.045585286 8.9296189e-39 0.033284739 0.03229136 0.99892414 0
-0.16962707 0.13549401 -0.04584698 8.9299805e-39 0.029056815 0.036701538 0.99890369 0
-0.16541816 0.13635761 -0.045952056 8.7452277e-39 0.025969313 0.037412781 0.99896246 0
-0.15964232 0.13586088 -0.046064101 8.7452305e-39 0.017468955 0.069212541 0.99744898 0
-0.1526503 0.13627906 -0.046092868 8.9296147e-39 -0.0044373306 0.024208983 0.99969703 0
-0.14627913 0.13515772 -0.046055626 9.0214516e-39 -0.0022082743 0.072780043 0.99734557 0
-0.14096123 0.13551596 -0.046057891 8.7448647e-39 -0.011305635 0.096414842 0.99527699 0
-0.1340659 0.13560621 -0.046019245 8.8367002e-39 -0.005115713 0.086392336 0.99624801 0
-0.12953781 0.13585566 -0.046031911 8.8363401e-39 0.00019777221 0.045687892 0.99895573 0
-0.12199935 0.1352662 -0.04591167 9.2969595e-39 -0.012079235 0.066377141 0.99772149 0
-0.11671613 0.13626364 -0.045965057 9.7582964e-39 0.003391186 0.066459157 0.99778342 0
-0.11102299 0.13483314 -0.045849081 9.3898754e-39 0.0040714983 0.071665719 0.99742037 0
-0.10512842 0.13619962 -0.04592663 9.6668196e-39 -0.0088041164 0.082145341 0.99658149 0
-0.098807566 0.13528901 -0.04579651 9.7579405e-39 -0.015718404 0.087557547 0.99603546 0
-0.093428113 0.13642083 -0.045837406 9.2047667e-39 0.0009408294 0.10651803 0.99431038 0
-0.08728946 0.13630939 -0.045868911 9.7579391e-39 0.0046956413 0.10207637 0.99476546 0
-0.081468619 0.13558701 -0.045821369 9.5735464e-39 0.010803731 0.080229595 0.99671781 0
-0.074011132 0.1359161 -0.045938127 9.4813494e-39 0.0084522711 0.059972961 0.99816424 0
-0.067868739 0.13562709 -0.046000943 9.2966008e-39 0.018785937 0.037263487 0.99912888 0
-0.06387379 0.13507223 -0.046105016 9.2976784e-39 0.029661724 0.025651433 0.99923074 0
-0.058101282 0.13417637 -0.046220716 8.4686394e-39 0.0073015057 0.025608379 0.99964535 0
-0.05136013 0.13477962 -0.046228234 9.3905929e-39 0.0097851427 0.018560147 0.99977988 0
-0.045418296 0.13601705 -0.046331074 9.5742667e-39 0.0076467092 0.021307128 0.99974376 0
-0.038876854 0.13308388 -0.046329085 1.0035961e-38 -0.013867347 0.028754927 0.99949032 0
-0.033575285 0.13614206 -0.046502214 9.2976756e-39 0.0053003752 0.047055993 0.99887812 0
-0.025355585 0.13413723 -0.04641344 9.482427e-39 0.019108467 0.027925469 0.99942738 0
-0.022858312 0.13686998 -0.046474516 1.0128158e-38 0.00030749364 0.028244236 0.99960101 0
-0.015933586 0.13592432 -0.046523925 1.0035959e-38 0.00070556306 0.049212329 0.99878806 0
-0.0073169167 0.13628328 -0.046610549 9.2061974e-39 0.068956636 -0.043698855 0.99666214 0
-0.003333858 0.13412072 -0.046970338 9.851571e-39 0.056860089 -0.029439215 0.99794799 0
0.0020400365 0.13482533 -0.047164988 9.2062016e-39 0.013614319 -0.033024918 0.99936175 0
0.01057639 0.13565204 -0.047428574 1.0036322e-38 0.041772194 -0.028731933 0.99871397 0
0.013464356 0.13389906 -0.04719083 1.0312908e-38 -0.041274477 0.056780804 0.99753314 0
0.021650419 0.13444062 -0.046507865 9.9441268e-39 -0.1445435 0.18606225 0.97184777 0
0.026927253 0.13564985 -0.046012927 1.003704e-38 -0.13070753 0.28059503 0.95088482 0
0.032468449 0.1378507 -0.045769393 1.0590218e-38 -0.164023 0.29524165 0.94123793 0
0.068719514 0.13520998 -0.046029627 9.4856766e-39 0.41790202 0.18758272 0.88891542 0
0.10121928 0.13472512 -0.047978166 1.1050124e-38 -0.099181898 -0.041192669 0.99421638 0
0.10544755 0.13551849 -0.047438204 1.0682058e-38 -0.12133747 -0.0265758 0.99225545 0
0.11190353 0.13585851 -0.046760328 1.0866089e-38 -0.10943144 -0.0082339505 0.99396026 0
0.1176667 0.13628472 -0.046175033 1.0497666e-38 -0.098108493 -0.0019777387 0.99517369 0
0.1218623 0.13550502 -0.045755088 1.0589502e-38 -0.10710873 0.015510153 0.99412638 0
0.13095795 0.13573819 -0.044962928 1.0497665e-38 -0.069974929 0.015033679 0.99743545 0
0.13456406 0.13611019 -0.044661146 9.4835144e-39 -0.05540213 0.029306684 0.99803394 0
0.14132871 0.13464247 -0.044191953 1.1419258e-38 -0.056525398 0.019741135 0.99820596 0
0.14722456 0.13263229 -0.043864906 1.1050477e-38 -0.04178647 0.028721804 0.99871367 0
0.15233178 0.13516529 -0.043644529 1.1143032e-38 -0.051495943 0.0054157777 0.99865854 0
0.16049916 0.13479282 -0.043271091 1.0866086e-38 -0.045491438 0.018376043 0.99879569 0
0.1663796 0.1352724 -0.043202363 1.077389e-38 -0.013852059 0.014678296 0.99979633 0
0.17044881 0.13424215 -0.043100096 1.0866083e-38 -0.028524993 0.00080353592 0.99959272 0
0.17691031 0.13366716 -0.043011069 1.1142669e-38 -0.014077238 0.0001982743 0.99990088 0
0.18348968 0.13507514 -0.042964585 1.151181e-38 -0.014227049 0.00035047074 0.99989873 0
0.18956177 0.13454987 -0.042906772 1.1511811e-38 -0.00026791255 -0.009516946 0.9999547 0
0.19469887 0.1360991 -0.042866819 1.0866086e-38 -0.0074860025 -0.014024006 0.99987364 0
0.20108092 0.13490379 -0.042893466 1.0866084e-38 -0.0050272667 -0.023663845 0.99970728 0
0.20662308 0.13506073 -0.042883325 1.1327061e-38 -0.00039599245 -0.02815222 0.99960363 0
0.21144681 0.13443168 -0.042908996 1.1327061e-38 0.0042209891 -0.032901317 0.99944973 0
0.21912912 0.13438505 -0.043037854 1.1050479e-38 0.027523946 -0.042890422 0.99870062 0
0.2243429 0.13542084 -0.043130498 1.0773893e-38 0.01306382 -0.042798981 0.99899834 0
0.23059364 0.13476236 -0.043238364 1.0220715e-38 0.0061326339 -0.042603493 0.99907327 0
0.23732562 0.13507859 -0.043334451 1.0958279e-38 0.051308479 -0.043342933 0.99774188 0
0.24182214 0.13537222 -0.043656856 1.0957917e-38 0.069392182 -0.061917171 0.99566609 0
0.25033382 0.13532849 -0.044043217 1.0866082e-38 -0.019871488 -0.083912186 0.99627501 0
0.25433934 0.13561974 -0.043876629 1.2064266e-38 -0.099181987 -0.041192349 0.99421638 0
0.26123321 0.13359396 -0.044021275 1.049694e-38 0.064320795 -0.11020903 0.99182498 0
0.26474637 0.13658071 -0.043778095 1.0957191e-38 -0.28320122 -0.1166798 0.95193642 0
-0.26157621 0.1416689 -0.042252362 6.443225e-39 0.070455439 -0.24673684 0.96651798 0
-0.25638798 0.14039749 -0.043395262 6.1666353e-39 0.17730516 -0.16069417 0.9709481 0
-0.24985032 0.14248754 -0.044021145 6.5357765e-39 0.096252605 -0.099003129 0.99042106 0
-0.24195313 0.142263 -0.044439919 6.9956743e-39 0.0059216898 -0.062961325 0.99799842 0
-0.23771971 0.14220095 -0.044737846 7.2722584e-39 0.056416091 -0.02970086 0.99796546 0
-0.23129255 0.1404279 -0.044763338 7.1800628e-39 -0.018501069 0.01930183 0.99964249 0
-0.22439849 0.14015655 -0.044834975 7.4566468e-39 0.037501112 -0.00053196587 0.99929643 0
-0.21818052 0.14179844 -0.044854008 7.3640911e-39 -0.020914482 0.0074378769 0.99975365 0
-0.21352966 0.13996725 -0.044948284 7.9172705e-39 0.039088175 0.018225871 0.99906951 0
-0.20761371 0.14114 -0.045005694 7.9176278e-39 0.0096513648 0.018640028 0.9997797 0
-0.20001623 0.14206761 -0.045050167 7.7339554e-39 -0.010261821 0.010850673 0.99988848 0
-0.19549865 0.13958518 -0.045234978 8.009106e-39 0.027864933 -0.0099149887 0.99956256 0
-0.18954144 0.14157659 -0.045141906 8.5615609e-39 0.039170515 0.023744313 0.99895042 0
-0.18193327 0.14259744 -0.045385223 8.6533964e-39 0.0801678 0.012462647 0.99670351 0
-0.17588584 0.13988179 -0.045662187 8.3768067e-39 -0.0071334555 -0.0069353008 0.99995053 0
-0.17122743 0.14067361 -0.045817427 9.0221761e-39 0.048512928 -0.021751573 0.9985857 0
-0.16371697 0.14169464 -0.046046037 8.7452319e-39 0.017441053 -0.011287348 0.99978417 0
-0.16054393 0.14211702 -0.046170224 8.6537509e-39 0.032291315 0.010156488 0.9994269 0
-0.15043133 0.14004587 -0.046199333 9.1147318e-39 -0.027315907 0.056611259 0.99802256 0
-0.14771098 0.13964929 -0.046205249 9.2065617e-39 0.014276936 0.013880865 0.99980175 0
-0.14280696 0.13924693 -0.046230793 8.1920497e-39 0.00020115392 0.014080516 0.99990088 0
-0.13495825 0.13937792 -0.046245262 8.5601119e-39 -0.0029627329 0.03206192 0.9994815 0
-0.1274799 0.14100504 -0.046278395 9.2054813e-39 0.00089578913 0.042503793 0.99909592 0
-0.1239659 0.13874209 -0.046180818 8.7441445e-39 -0.013473606 0.042401105 0.99900985 0
-0.11783076 0.1402795 -0.046206113 9.1132871e-39 0.008384998 0.048634712 0.99878144 0
-0.11162867 0.13957968 -0.046158679 9.0210901e-39 0.0014075529 0.046429008 0.99892056 0
-0.10524073 0.13909975 -0.046145424 9.0214488e-39 -0.0034930676 0.063271321 0.99799025 0
-0.099734046 0.14039221 -0.046222888 9.5742667e-39 -0.0010074397 0.070686445 0.9974981 0
-0.093053289 0.13899146 -0.046128694 8.7448591e-39 0.00046723726 0.10559193 0.99440938 0
-0.088053502 0.14042819 -0.046232011 9.8504934e-39 0.0038833527 0.085088275 0.9963659 0
-0.081840642 0.14086978 -0.046267956 9.3891551e-39 0.0090511497 0.0773146 0.99696565 0
-0.07529407 0.14003004 -0.046229582 9.5739079e-39 -0.0050741388 0.080172166 0.99676812 0
-0.069446519 0.13980807 -0.04622218 9.665742e-39 0.005415767 0.076118901 0.99708408 0
-0.062837079 0.1410757 -0.046366993 9.5742667e-39 0.035833802 0.048700225 0.99817044 0
-0.056828879 0.14046466 -0.046428122 9.0214516e-39 0.00049550761 0.035180461 0.99938083 0
-0.050382275 0.14026165 -0.046435744 9.2980371e-39 0.0054273736 0.033031385 0.9994396 0
-0.044951573 0.14136755 -0.046477038 9.5746268e-39 0.005228274 0.023591174 0.999708 0
-0.040498909 0.14060085 -0.046475884 9.574624e-39 0.0073404126 0.021014702 0.99975228 0
-0.032698903 0.14074583 -0.04664804 9.2058387e-39 0.023784937 0.023124322 0.99944961 0
-0.026955986 0.14177239 -0.046711117 9.851571e-39 -0.01385899 0.023914192 0.99961793 0
-0.0214651 0.14173067 -0.04663289 9.9437652e-39 -0.018193157 0.029060639 0.999412 0
-0.014942909 0.14095525 -0.046646781 9.4817053e-39 0.0076568401 0.02131168 0.99974358 0
-0.0093704173 0.1405386 -0.046649601 9.3898726e-39 0.010240761 0.046938192 0.99884528 0
-0.0026607953 0.1410823 -0.046886999 1.0312905e-38 0.065795124 -0.0011760489 0.99783242 0
0.0031681163 0.14126857 -0.046957865 9.851571e-39 0.022680759 -0.03287163 0.99920225 0
0.0078963377 0.14026584 -0.047165256 9.8522899e-39 0.04157592 -0.042763803 0.99821979 0
0.015603334 0.14022221 -0.047131442 1.0221074e-38 -0.015440904 -0.049674813 0.99864608 0
0.021529078 0.14010507 -0.047001589 1.0405105e-38 -0.071124636 -0.049959473 0.99621552 0
0.026923612 0.14334452 -0.046405658 1.0036687e-38 -0.042424034 -0.032427441 0.9985733 0
0.033538595 0.14015959 -0.046178568 9.2991189e-39 -0.13556713 0.18537325 0.97327191 0
0.038745463 0.14178987 -0.04584223 1.0221798e-38 -0.19767886 0.15642294 0.96770597 0
0.042183422 0.13855894 -0.043360885 9.7615446e-39 -0.46663138 0.27124241 0.841833 0
0.060596019 0.14082615 -0.0454797 1.0499468e-38 0.40478918 0.15074715 0.90189856 0
0.068879567 0.14087953 -0.047687829 1.0038489e-38 0.15947987 0.24197467 0.95708638 0
0.1048608 0.14066507 -0.047348183 1.0497308e-38 -0.09391968 -0.036299907 0.99491781 0
0.11073509 0.1428148 -0.046775937 1.0773896e-38 -0.08443898 -0.017517593 0.99627471 0
0.11806525 0.14058398 -0.046130899 1.0404755e-38 -0.083979838 -0.0047618737 0.99645603 0
0.12383091 0.14030106 -0.045609791 1.0313274e-38 -0.10348237 0.0022581089 0.99462879 0
0.12955065 0.14093351 -0.045125991 1.0128884e-38 -0.070037201 0.0080717476 0.99751174 0
0.13383326 0.1416062 -0.044780839 9.7601013e-39 -0.041793279 0.014868422 0.99901569 0
0.14007044 0.14089806 -0.044375807 1.1419621e-38 -0.075368889 0.011091821 0.99709404 0
0.14631391 0.14141926 -0.044004861 1.1050837e-38 -0.05038764 0.01107163 0.99866837 0
0.15355322 0.1413219 -0.043644685 1.0036324e-38 -0.027945608 0.014471373 0.99950469 0
0.15911394 0.1413164 -0.043440774 1.1050836e-38 -0.042596277 -0.013662596 0.99899894 0
0.16337509 0.14086473 -0.043288819 1.0589499e-38 0.0001004829 9.7691634e-05 1 0
0.1693559 0.1423243 -0.043109111 1.095864e-38 -0.01407341 0.00020114034 0.999901 0
0.17645986 0.14208968 -0.043020524 1.0866084e-38 -0.014077239 0.00019827446 0.99990088 0
0.1836417 0.14081183 -0.042919751 1.0866084e-38 -0.010608468 -0.0033713754 0.99993807 0
0.18975592 0.14220729 -0.0429 1.0681695e-38 0 0 1 0
0.19410037 0.1415875 -0.042803474 9.7597369e-39 -0.014275311 0.00040212806 0.99989802 0
0.2028238 0.14146905 -0.042735443 1.114267e-38 -0.0096510779 -0.018638792 0.9997797 0
0.20635618 0.1413075 -0.042707499 1.1235223e-38 -0.00039652397 -0.028152736 0.99960363 0
0.21216577 0.13995832 -0.042743087 1.1234866e-38 -0.00053781614 -0.028278731 0.99959987 0
0.21804173 0.1419761 -0.042688861 1.1234868e-38 0.017276889 -0.032257035 0.99933028 0
0.22485898 0.14327356 -0.04280065 1.1419262e-38 0.013473086 -0.042401608 0.99900985 0
0.22875488 0.14163671 -0.042874102 1.0497302e-38 0.01326348 -0.056430001 0.99831843 0
0.2366896 0.14112526 -0.043045893 1.0682051e-38 0.041719522 -0.028720327 0.99871647 0
0.24277952 0.14089015 -0.043397542 1.0589496e-38 0.048791736 -0.06403932 0.99675387 0
0.24951386 0.14139397 -0.043558534 1.0866083e-38 0.011481484 -0.090261348 0.99585193 0
0.25470746 0.13849518 -0.043653931 1.0589493e-38 -0.063991427 -0.048511494 0.99677068 0
0.26210743 0.13942172 -0.043531738 1.0495861e-38 0.02028797 -0.077467456 0.99678844 0
0.26601154 0.14348882 -0.043225944 1.0866082e-38 0.03448553 -0.078135267 0.99634618 0
0.27063173 0.14319594 -0.043276004 9.8522857e-39 -0.029306147 -0.055401627 0.998034 0
-0.25518301 0.14713298 -0.042757422 6.0748012e-39 0.17091073 -0.1279276 0.97694635 0
-0.24968457 0.14604653 -0.043715674 6.2581121e-39 0.09652295 -0.080502674 0.9920699 0
-0.24490011 0.14447597 -0.044226721 6.7190888e-39 0.026311994 -0.11229451 0.99332649 0
-0.23696136 0.14727022 -0.044585783 7.2719011e-39 0.064543441 -0.038802341 0.99716026 0
-0.23044944 0.14712173 -0.044860821 7.0875056e-39 0.028282097 -0.0077840458 0.99956965 0
-0.22383368 0.14719558 -0.044878006 7.5488453e-39 -0.0042959047 0.014335791 0.999888 0
-0.21893191 0.14589664 -0.044870742 7.5484865e-39 -0.014077762 0.00019828168 0.99990088 0
-0.21259987 0.14665231 -0.045153297 7.8254308e-39 0.028603483 0.013271994 0.99950272 0
-0.20766409 0.14679354 -0.045168117 7.9179907e-39 0.078072764 0.033568632 0.99638242 0
-0.20202123 0.14585719 -0.045167185 7.4573713e-39 -0.013201258 0.035724029 0.99927449 0
-0.19427457 0.14668083 -0.045091558 7.5484879e-39 0.0069243149 -0.0071221227 0.99995065 0
-0.18790805 0.14770865 -0.045358442 8.2860502e-39 0.042004827 -0.014662424 0.99900985 0
-0.1843345 0.14760093 -0.04525429 8.284974e-39 0.0053759841 0.0048210118 0.99997395 0
-0.17674837 0.14664361 -0.045632813 8.6533964e-39 0.011294057 0.031781275 0.99943107 0
-0.17029066 0.14675681 -0.045793224 9.2069289e-39 0.037667517 0.0089754285 0.99925005 0
-0.16643508 0.14643645 -0.045969423 8.2846096e-39 0.06128303 0.036702156 0.99744546 0
-0.15819816 0.14753334 -0.046171505 8.192414e-39 -0.0054193963 -0.059923191 0.99818826 0
-0.15395904 0.14505433 -0.046371073 8.6515929e-39 0.013101569 -0.070382223 0.99743408 0
-0.14766096 0.14787282 -0.046199698 8.8374233e-39 -0.0046572327 -0.013771634 0.99989432 0
-0.14194316 0.14726275 -0.046391498 8.2842453e-39 0.0075394483 0.021110928 0.99974877 0
-0.13638258 0.14945598 -0.046467334 9.0210859e-39 -0.028752219 -0.01367214 0.99949306 0
-0.12682407 0.14593606 -0.046370421 8.1909707e-39 -0.00019831402 -0.014080059 0.99990088 0
-0.12355597 0.14752626 -0.046288162 8.6519502e-39 -0.0049689133 -0.018694025 0.99981296 0
-0.11735699 0.14840546 -0.046426982 9.4824326e-39 -0.013662586 0.01447831 0.99980187 0
-0.11047114 0.14637263 -0.046346769 9.2973182e-39 0.005043651 0.014475181 0.99988252 0
-0.099509135 0.14621197 -0.046547581 9.4820682e-39 0.0077313259 0.049417701 0.9987483 0
-0.093983158 0.14857005 -0.046555046 8.7452221e-39 0.013877469 -0.014279718 0.9998017 0
-0.085942738 0.14902909 -0.046666849 1.040331e-38 -0.00020111261 -0.014278756 0.99989808 0
-0.080920957 0.14502977 -0.046544611 9.1136458e-39 -0.012460994 0.05721676 0.99828404 0
-0.077161543 0.14786388 -0.046664808 8.6519488e-39 -0.014277458 -0.013880855 0.9998017 0
-0.060674366 0.14786689 -0.04664553 9.9426862e-39 0.00039704118 0.028152203 0.99960357 0
-0.057813406 0.14876567 -0.046650011 9.2987588e-39 0.00013204418 0.0093873795 0.99995595 0
-0.053274401 0.14549121 -0.046582833 9.0210943e-39 0.00080418977 0.028548241 0.99959213 0
-0.046313152 0.14788923 -0.046598207 9.2062002e-39 0.00019831897 0.014080293 0.99990088 0
-0.039008826 0.14579323 -0.046670772 9.0218103e-39 0.021904824 0.041897405 0.99888182 0
-0.033068623 0.14667514 -0.046774201 8.7452235e-39 0.0072377995 0.013980531 0.99987608 0
-0.027807044 0.14801487 -0.046797279 9.5746254e-39 -0.0045580864 0.00482619 0.99997801 0
-0.021481143 0.14747393 -0.046788231 9.2058415e-39 -0.0067138337 0.03545896 0.99934858 0
-0.015749894 0.14627679 -0.046769526 9.4824256e-39 0.00053568394 0.037497289 0.99929661 0
-0.0089860726 0.14758715 -0.04687522 9.8522885e-39 0.007334989 0.021016914 0.99975228 0
-0.0031047286 0.14926197 -0.046911214 8.9288902e-39 0.0066360356 -0.021517022 0.99974644 0
0.0041327812 0.14601187 -0.046972197 9.4831472e-39 -0.018619191 0.038591746 0.99908155 0
0.0097306296 0.14642651 -0.04688203 9.298756e-39 -0.038923346 -0.037103526 0.9985531 0
0.013929586 0.1471235 -0.046801519 9.7597355e-39 0.023319948 -0.0097693736 0.99968028 0
0.020340703 0.14690322 -0.04685859 1.0313271e-38 -0.014549106 -0.034994353 0.99928159 0
0.02780216 0.147072 -0.046417762 1.0220716e-38 0.059232727 0.027731495 0.99785894 0
0.033091076 0.14607789 -0.046548061 9.8515752e-39 -0.13237447 0.0089628948 0.99115932 0
0.039391197 0.1471661 -0.046101741 9.48315e-39 -0.097808547 0.086780794 0.99141443 0
0.045437627 0.14719182 -0.044999927 9.7611775e-39 -0.16680022 0.35018688 0.9217087 0
0.050587356 0.14931051 -0.045610979 1.0314353e-38 -0.013614011 0.47611919 0.87927538 0
0.057207093 0.14589293 -0.045751054 1.0590944e-38 0.29431859 0.29650599 0.90854871 0
0.063422754 0.1456541 -0.047477596 1.0038487e-38 0.26285148 0.2737968 0.92517263 0
0.093127236 0.14779939 -0.047948249 1.0220719e-38 -0.11389371 -0.083230495 0.99000049 0
0.099256337 0.14489987 -0.047635518 9.8522913e-39 -0.079682685 -0.062440861 0.99486274 0
0.10411475 0.14719303 -0.047157377 1.0221078e-38 -0.051887568 -0.02264842 0.9983961 0
0.1108833 0.14724126 -0.046661191 1.0682056e-38 -0.063521087 -0.020187017 0.99777633 0
0.11724725 0.146888 -0.046178471 1.0313276e-38 -0.08868698 -0.011352868 0.99599481 0
0.12332109 0.14666499 -0.045642834 1.022144e-38 -0.084859379 -0.0077943313 0.99636245 0
0.12825993 0.14717716 -0.045245793 1.0221079e-38 -0.066349618 0.011387187 0.99773145 0
0.13457081 0.1457385 -0.044795498 1.0589863e-38 -0.065435417 0.010287764 0.99780375 0
0.14235075 0.14718211 -0.044313658 1.058914e-38 -0.070062488 0.015002871 0.99742979 0
0.14765969 0.14683147 -0.043989033 1.1143032e-38 -0.071306206 0.0019223606 0.99745262 0
0.15325373 0.146395 -0.043697372 1.0866449e-38 -0.049708173 -0.0061174133 0.99874508 0
0.15930171 0.14594315 -0.043399215 1.0866087e-38 -0.023376198 0.0050284481 0.99971414 0
0.16410716 0.14879955 -0.043291669 1.0958282e-38 -0.032757562 0.0051530916 0.99945003 0
0.17184263 0.14798933 -0.043110669 1.0773889e-38 -0.014406885 -0.0043527647 0.99988669 0
0.17583483 0.14494529 -0.0430457 1.0866086e-38 -0.01388037 0.014276928 0.99980175 0
0.18287742 0.14868222 -0.04290669 1.1142673e-38 -0.018968275 -0.0091852183 0.99977797 0
0.18968661 0.14848879 -0.042810831 1.0497302e-38 -0.017842846 -0.017347204 0.99969035 0
0.19590285 0.14785315 -0.042674229 1.0866084e-38 -0.028738843 -0.027538581 0.99920756 0
0.20079766 0.14565724 -0.042683832 1.0958282e-38 -0.0038710849 -0.024581112 0.99969035 0
0.20676081 0.14785466 -0.042533636 1.0866442e-38 -0.02882643 -0.028025683 0.99919146 0
0.21203162 0.14679362 -0.042491045 1.1050836e-38 -0.0058941967 -0.042733073 0.99906915 0
0.21944827 0.14695507 -0.042570554 1.1234871e-38 0.013568139 -0.042498715 0.99900436 0
0.22452164 0.14572842 -0.042686984 1.0497665e-38 0.0039535859 -0.042536855 0.9990871 0
