# .PCD v0.7 - Point Cloud Data file format
VERSION 0.7
FIELDS x y z rgb normal_x normal_y normal_z curvature
SIZE 4 4 4 4 4 4 4 4
TYPE F F F F F F F F
COUNT 1 1 1 1 1 1 1 1
WIDTH 552
HEIGHT 1
VIEWPOINT 0 0 0 1 0 0 0
POINTS 552
DATA ascii
0.1306238 -0.19513345 -0.034808494 3.7098536e-40 -0.0047762557 -0.0087564848 0.99995029 0
0.13580915 -0.19469011 -0.034817293 3.7098396e-40 -0.0045410967 -0.0088847512 0.99995023 0
0.14148265 -0.19415198 -0.034803875 2.784282e-40 -0.0023881097 -0.004378181 0.9999876 0
0.14753154 -0.19644794 -0.034809314 3.7134409e-40 0.013661112 0.0042188573 0.99989778 0
0.15266412 -0.19617867 -0.034853648 3.7098396e-40 -0.010913141 0.011534435 0.99987394 0
0.15800637 -0.19519199 -0.0348 3.7062523e-40 0 0 1 0
0.1650238 -0.19528507 -0.0348 5.5501649e-40 0 0 1 0
0.16932288 -0.19454354 -0.0348 3.7062523e-40 0 0 1 0
0.17642504 -0.19455639 -0.034753617 1.8623397e-40 -0.017681634 0.0092427097 0.99980098 0
0.18468907 -0.1939463 -0.034729775 3.7062383e-40 0.027169975 0.0085159931 0.99959463 0
0.18813804 -0.1964629 -0.034732372 3.7062383e-40 0.0096445028 0.017681617 0.99979717 0
0.19595952 -0.19784403 -0.0348 2.784282e-40 0 0 1 0
0.20256095 -0.19575827 -0.034724742 3.7098116e-40 0.0059719263 -0.0030583469 0.99997753 0
0.20882949 -0.1937502 -0.03481023 2.7842679e-40 0.017604774 -0.0095012346 0.99979991 0
0.21401082 -0.19383824 -0.03492111 2.7806806e-40 0.029942129 -0.0006418447 0.99955142 0
0.2203242 -0.19585383 -0.035044905 2.7842539e-40 0.015244514 0.014685056 0.99977595 0
0.22960985 -0.19484651 -0.035112042 9.4034133e-41 0.0124589 0.055335056 0.99839014 0
0.23716131 -0.19501112 -0.034829166 1.8622696e-40 -0.028062683 0.043189336 0.99867272 0
0.24343188 -0.1950468 -0.03475064 1.8622556e-40 -0.0047506467 0.032825831 0.99944979 0
0.24738002 -0.1958281 -0.034678847 1.8586543e-40 -0.026388528 0.036386188 0.99898934 0
0.25518405 -0.19458924 -0.03445236 1.8622556e-40 -0.029531762 0.015497291 0.99944371 0
0.2603963 -0.1956235 -0.034375098 2.7841558e-40 0.0088903923 -0.0047063916 0.99994946 0
0.26793006 -0.19718093 -0.035129707 4.6244811e-40 0.23037557 -0.015345175 0.9729808 0
0.27062196 -0.19421789 -0.035790712 4.6173205e-40 0.35535628 -0.015827535 0.9345969 0
0.094389588 -0.19069549 -0.035881594 2.7987153e-40 -0.2153067 -0.13444667 0.96724719 0
0.09731435 -0.18871087 -0.035287574 3.7171123e-40 -0.036154501 -0.0038136758 0.99933892 0
0.10390405 -0.18989378 -0.035078805 3.713469e-40 -0.017520243 0.0094560366 0.99980181 0
0.10972615 -0.18886678 -0.035 6.4793098e-40 0 0 1 0
0.11698785 -0.18794149 -0.034897745 3.7134409e-40 -0.013561007 -0.0041185291 0.99989957 0
0.12352242 -0.18957642 -0.034803584 5.5573535e-40 -0.013297888 -0.0041066995 0.99990314 0
0.12861963 -0.18879469 -0.0348 2.7914846e-40 0 0 1 0
0.1353118 -0.18968137 -0.0348 4.6282086e-40 0 0 1 0
0.14083305 -0.18867618 -0.03482382 3.7098256e-40 0.0048223161 0.0088409279 0.99994934 0
0.14724362 -0.19039604 -0.034804493 3.7062383e-40 0.0087564848 -0.0047762557 0.99995029 0
0.15265337 -0.189604 -0.034877498 2.7878693e-40 -0.0024150438 -0.0045184749 0.99998689 0
0.15913627 -0.19129857 -0.034788281 3.7134269e-40 -0.0047213086 -0.0088416478 0.99994981 0
0.16423535 -0.18750967 -0.034764092 9.4036936e-41 0.017932072 -0.009165315 0.99979722 0
0.17111361 -0.19027606 -0.0348 3.7062523e-40 0 0 1 0
0.17564936 -0.19041221 -0.034770355 2.784296e-40 -0.030129815 -0.013838922 0.99945021 0
0.18185084 -0.18979731 -0.034701489 3.7062242e-40 0.018001996 0.0018503864 0.99983627 0
0.18885705 -0.18831363 -0.03473416 2.784282e-40 -0.0022023746 -0.0043363385 0.99998814 0
0.19370539 -0.19106397 -0.034768987 4.6282086e-40 0.0041630063 -0.013480261 0.99990052 0
0.20110768 -0.1893352 -0.034760758 4.6281946e-40 -0.013344201 0.0070758597 0.99988598 0
0.20778851 -0.18921511 -0.03474924 2.197236e-42 0.017211389 -0.0093880147 0.99980783 0
0.21174446 -0.18858159 -0.034821771 2.7878413e-40 0.022060223 -0.022772921 0.99949723 0
0.21930167 -0.18875343 -0.035126723 3.7026089e-40 0.040347956 0.011867078 0.99911523 0
0.22451289 -0.18865566 -0.035294082 3.7062102e-40 0.011035264 0.027905192 0.99954969 0
0.2328757 -0.19108152 -0.035275362 2.1958347e-42 -0.034313619 0.041410532 0.99855286 0
0.23707344 -0.18910639 -0.035200167 1.8586963e-40 -0.039364621 0.066286929 0.99702382 0
0.24285895 -0.18763547 -0.035100497 2.7842119e-40 -0.046413012 0.055262368 0.99739254 0
0.24852803 -0.18836427 -0.034819134 1.8622416e-40 -0.044340976 0.012020862 0.99894416 0
0.2558862 -0.19058892 -0.034369037 2.7841699e-40 -0.040263649 0.0096537247 0.99914247 0
0.26082283 -0.18929403 -0.034359016 1.8622136e-40 0.026897594 0.0080472175 0.99960583 0
0.26653445 -0.18955199 -0.034655735 1.8585982e-40 0.14373866 -0.020897722 0.98939496 0
0.093091771 -0.18373075 -0.035549339 1.876745e-40 -0.12640294 -0.050211526 0.9907074 0
0.099475674 -0.18304408 -0.035220962 9.5836203e-41 -0.017580111 0.0094467988 0.99980086 0
0.10516769 -0.18231489 -0.035127267 2.7986593e-40 -0.01773621 0.009271197 0.99979973 0
0.11099582 -0.18385838 -0.035009727 2.7914706e-40 -0.017606428 0.0093982238 0.99980086 0
0.11544922 -0.18301767 -0.034957074 1.865969e-40 -0.012774728 0.018236624 0.9997521 0
0.12316941 -0.18277988 -0.034866039 3.7134409e-40 -0.004021408 0.01356213 0.99989992 0
0.13056923 -0.18366097 -0.0348 3.7134409e-40 0 0 1 0
0.1353814 -0.18374902 -0.034805477 3.7098396e-40 0.0090571363 0.0028388142 0.99995494 0
0.1402244 -0.18337762 -0.034859501 3.7062383e-40 4.2207172e-05 -0.00012350375 1 0
0.14662617 -0.18317729 -0.034868296 3.7062383e-40 0.0069908584 0.013282152 0.99988741 0
0.15258093 -0.18476988 -0.03486174 2.784282e-40 -0.027058713 -0.0079584066 0.9996022 0
0.15922506 -0.18186431 -0.034751188 4.6281946e-40 -0.0026795499 0.0090420721 0.99995548 0
0.16549459 -0.18391117 -0.034790777 1.865885e-40 0.013586376 0.0042584222 0.99989867 0
0.17112054 -0.18318826 -0.034798421 2.7878693e-40 -0.0068306457 -0.0021094712 0.99997449 0
0.17790063 -0.18231602 -0.034687813 4.6317679e-40 -0.0088612735 0.012014501 0.99988854 0
0.18328269 -0.18376118 -0.034771267 4.6317539e-40 0.0091812732 0.0028343489 0.99995381 0
0.18775764 -0.18265016 -0.034714252 3.7097976e-40 -0.006357986 -0.0019634885 0.99997783 0
0.19501702 -0.18063532 -0.0348 3.7062383e-40 0 0 1 0
0.19932222 -0.18310778 -0.0348 3.7098116e-40 0 0 1 0
0.20610823 -0.18313012 -0.034745742 2.784282e-40 -0.00890477 0.0047031515 0.99994928 0
0.21299024 -0.18233153 -0.034817737 1.865913e-40 0.054059368 0.016722096 0.99839765 0
0.22138269 -0.18492985 -0.035247035 2.7806526e-40 0.044984538 -0.00081094232 0.99898738 0
0.2254204 -0.18171443 -0.035394747 3.7025949e-40 0.035702191 -0.004333375 0.99935311 0
0.23138645 -0.1827783 -0.035479683 2.7842399e-40 0.0045804228 0.0088630831 0.99995023 0
0.23740281 -0.18292813 -0.035435177 2.7806246e-40 -0.017505458 0.0095484164 0.99980116 0
0.24274753 -0.18229283 -0.03537073 1.8622556e-40 -0.048875488 0.025457829 0.99848038 0
0.24876815 -0.18425792 -0.034868732 9.4028528e-41 -0.053103533 0.027758777 0.9982031 0
0.2549898 -0.18397154 -0.034561284 1.8622556e-40 -0.054668929 0.023549642 0.99822676 0
0.26131845 -0.1832535 -0.034376137 1.8622136e-40 -0.00474256 -0.0088863084 0.99994928 0
0.26710007 -0.18365304 -0.03482103 9.4025726e-41 0.21814382 0.0024687904 0.97591347 0
0.2706812 -0.18267733 -0.035653412 2.7841558e-40 0.30130962 -0.034410041 0.95290524 0
0.088696562 -0.17628409 -0.035713103 2.8022886e-40 -0.12220008 -0.033148259 0.99195176 0
0.093897209 -0.17862177 -0.035360985 1.876731e-40 -0.017512098 0.0095520364 0.99980104 0
0.097736642 -0.17827538 -0.035298638 1.876731e-40 -0.012941394 0.018124744 0.99975204 0
0.10399194 -0.17732432 -0.035199206 3.7134409e-40 -0.010992431 0.011475207 0.99987376 0
0.11088974 -0.17658973 -0.035138469 4.6353832e-40 -0.0082551409 0.027156234 0.99959707 0
0.11809517 -0.17656371 -0.035006441 2.7914846e-40 -0.035173383 0.018783856 0.9992047 0
0.12264496 -0.17760666 -0.034909025 4.6354112e-40 -0.011841067 0.0063152229 0.99990994 0
0.12890729 -0.17725945 -0.034876589 1.8695283e-40 -0.0085065663 0.018116111 0.99979973 0
0.13491891 -0.17718168 -0.034848537 2.7878833e-40 -0.0052012699 0.017997244 0.99982452 0
0.14228846 -0.1770765 -0.034913853 2.7878833e-40 0.021220786 0.011364878 0.9997102 0
0.14772277 -0.17771125 -0.034920592 2.7878833e-40 -0.02073653 0.0035325757 0.99977875 0
0.15265764 -0.17890923 -0.034821145 1.8695143e-40 -0.017210724 0.0093876515 0.99980783 0
0.15935929 -0.17783904 -0.03480652 2.7914426e-40 0.0074464451 0.024208246 0.99967921 0
0.16525552 -0.17856273 -0.034814261 4.6245792e-40 -0.017505458 0.0095484154 0.99980116 0
0.17029935 -0.17662248 -0.034794539 3.7098116e-40 -0.0044205799 0.0023107668 0.9999876 0
0.17831707 -0.17643328 -0.034792706 1.865885e-40 0.0061588977 0.011657779 0.99991304 0
0.18338147 -0.17686224 -0.034779273 2.7878553e-40 -0.0089237411 0.0046646711 0.99994934 0
0.18931022 -0.17696819 -0.034730829 3.7097976e-40 -8.3449762e-05 4.4580891e-05 1 0
0.19556028 -0.1770125 -0.034758598 1.8658569e-40 -0.00026263946 -0.01487164 0.99988937 0
0.20063543 -0.17551386 -0.03479474 1.8658709e-40 0.0067735007 0.0020918085 0.99997491 0
0.2067212 -0.17699546 -0.034823928 4.6317539e-40 0.012686215 0.023370178 0.99964637 0
0.2127348 -0.17541128 -0.034914594 3.7097695e-40 0.035671458 -0.018646399 0.99918962 0
0.21787579 -0.17815995 -0.035096291 2.7878272e-40 0.023256321 -0.012417776 0.99965239 0
0.22772926 -0.1762381 -0.035419106 2.7806246e-40 0.0080349138 -0.026918745 0.99960536 0
0.23109683 -0.17617986 -0.035439312 2.7806246e-40 0.017806826 -0.0094049135 0.99979722 0
0.23660137 -0.17705159 -0.035500001 2.7841979e-40 0 0 1 0
0.24170649 -0.17640679 -0.035425778 2.7877572e-40 -0.035867207 -0.010842158 0.9992978 0
0.24949725 -0.17752872 -0.035021678 1.8622556e-40 -0.035130002 0.019197542 0.99919838 0
0.25373667 -0.17751363 -0.034838125 1.8622136e-40 -0.11976542 0.029759517 0.99235612 0
0.25943413 -0.17717317 -0.034402147 9.4022923e-41 -0.035199396 0.018794339 0.99920356 0
0.26428661 -0.17575611 -0.034382317 9.4024324e-41 0.070514932 -0.036859989 0.99682951 0
0.27002794 -0.17793626 -0.035296839 4.6280684e-40 0.2350083 -0.056685157 0.97033912 0
0.087790035 -0.17069304 -0.035711262 2.8022886e-40 -0.061738454 0.011117948 0.99803048 0
0.094676495 -0.17217894 -0.03549014 2.7986873e-40 -0.017458953 0.024273243 0.99955291 0
0.097315997 -0.16946948 -0.035521146 1.8731437e-40 -0.028737331 0.030818168 0.99911183 0
0.10544057 -0.17122698 -0.035296138 2.7951e-40 0.00068526273 0.022453733 0.99974763 0
0.11197063 -0.17003247 -0.035204936 2.7914846e-40 -0.0053541763 0.0072193914 0.99995953 0
0.11652687 -0.1699748 -0.035169635 2.7878833e-40 -0.020126337 0.01828382 0.99963027 0
0.12261626 -0.17110108 -0.034995381 3.7134409e-40 -0.011516387 0.021169862 0.99970955 0
0.12980832 -0.17039734 -0.03495267 4.6318099e-40 -0.013460875 -0.0040181829 0.99990135 0
0.13509794 -0.17059879 -0.034968134 2.7914706e-40 0.0036881403 0.020650061 0.99978 0
0.14119825 -0.1729181 -0.034930851 3.7062523e-40 0.0093199415 0.017644089 0.99980086 0
0.14511667 -0.17081532 -0.035 5.5537102e-40 0 0 1 0
0.15076196 -0.17161322 -0.034919076 3.7098256e-40 -0.0063962284 0.0091253081 0.99993795 0
0.15802589 -0.17149994 -0.034904622 2.7878413e-40 0.0081728967 0.0099338638 0.99991721 0
0.16524699 -0.17036974 -0.034893852 3.7098116e-40 -0.026940608 0.0027742449 0.99963319 0
0.17017463 -0.17150855 -0.0348 4.6281946e-40 0 0 1 0
0.176828 -0.17140827 -0.0348 1.8623116e-40 0 0 1 0
0.1827012 -0.17172986 -0.034784794 3.7133849e-40 0.0039805742 -0.013533917 0.99990052 0
0.18918264 -0.17112714 -0.034737937 2.7878413e-40 -0.022387948 0.00063897012 0.99974918 0
0.19553086 -0.17134361 -0.034745727 2.7878272e-40 0.0094049098 0.017607657 0.99980074 0
0.20335826 -0.16826941 -0.034898665 2.7878413e-40 -0.0080359327 0.02691843 0.99960536 0
0.20746271 -0.17261873 -0.034899037 3.7062102e-40 0.0090571437 0.0028388102 0.99995494 0
0.21371682 -0.17051956 -0.034945939 3.7062102e-40 0.0069063846 0.0019642345 0.99997419 0
0.21818107 -0.17313166 -0.034990761 1.8658709e-40 0.020443993 -0.003577051 0.99978459 0
0.22408228 -0.17178887 -0.035214666 2.7878132e-40 0.053820211 -0.005439423 0.99853587 0
0.23149483 -0.1705095 -0.03538923 1.8658429e-40 0.014410484 -0.015372353 0.99977803 0
0.23720556 -0.17098445 -0.035446726 3.7061682e-40 0.0024624551 -0.024007946 0.99970871 0
0.24338351 -0.16980675 -0.035262145 2.7877852e-40 -0.040479209 -0.012501493 0.99910218 0
0.24973559 -0.1720807 -0.035071224 9.4383057e-41 -0.021263979 -0.011472911 0.99970806 0
0.25462782 -0.17056757 -0.034865748 1.8586262e-40 -0.066902138 -0.0093664601 0.99771553 0
0.26192725 -0.17243181 -0.034404263 2.7841418e-40 -0.035199393 0.018794339 0.99920356 0
0.26645869 -0.17178521 -0.034473188 9.4384458e-41 0.15488459 -0.0041886377 0.98792368 0
0.27159491 -0.17079417 -0.035588402 4.6244671e-40 0.32765287 0.025627771 0.94445056 0
0.086826742 -0.16445448 -0.035847962 3.7206716e-40 -0.053589564 0.012916646 0.99847955 0
0.093544304 -0.16399972 -0.035711799 2.7915127e-40 -0.0079404227 0.026982604 0.99960434 0
0.099838547 -0.1647702 -0.035555419 3.7134409e-40 -0.035387184 0.018497841 0.99920249 0
0.10438565 -0.16422325 -0.035458077 4.6353832e-40 -0.029353412 0.030200921 0.99911273 0
0.10833603 -0.1641247 -0.035380114 3.7134269e-40 -0.042907663 0.046086691 0.99801552 0
0.11670754 -0.16473535 -0.035254113 1.8695143e-40 -0.0081864987 0.026997076 0.99960202 0
0.12201169 -0.16549253 -0.035150021 2.7878833e-40 -0.022933096 0.027651008 0.99935454 0
0.12892455 -0.16487381 -0.035019301 2.784282e-40 -0.013095856 0.018208591 0.99974841 0
0.13566892 -0.16566513 -0.035038713 1.8695003e-40 0.027157402 0.0082542049 0.99959707 0
0.1408166 -0.16598895 -0.035055444 3.7098256e-40 -0.0040231459 0.013663112 0.99989855 0
0.14743111 -0.1643469 -0.034979999 3.7098256e-40 -0.017586293 0.0094008502 0.99980116 0
0.15384647 -0.16349463 -0.034931824 2.7878693e-40 -0.0020724717 0.0067135636 0.99997532 0
0.16055024 -0.16514491 -0.034964517 2.7878413e-40 -0.0089577436 -0.0027663913 0.99995601 0
0.16539298 -0.16523135 -0.034899998 2.784282e-40 0 0 1 0
0.17077759 -0.16480336 -0.034838419 3.7098116e-40 -0.01067507 0.0056605097 0.99992704 0
0.1768674 -0.16602771 -0.034840919 2.7878413e-40 0.018324947 0.013142106 0.99974573 0
0.18212166 -0.1652144 -0.034806557 2.7878272e-40 -0.0057385317 0.020487452 0.99977362 0
0.19008733 -0.16552036 -0.034752995 4.6245512e-40 0.0094806608 0.017396901 0.99980378 0
0.19608156 -0.16511129 -0.034920767 3.7061962e-40 0.018680332 0.035229061 0.99920464 0
0.20090905 -0.16514212 -0.034960605 2.7878413e-40 -0.0068060379 -0.0022376443 0.99997431 0
0.20796582 -0.16709402 -0.03493721 2.7878272e-40 0.0092427218 0.017681658 0.99980098 0
0.21450591 -0.1631851 -0.035126094 1.865885e-40 0.0099307196 0.032461606 0.99942362 0
0.21931645 -0.16569182 -0.035091404 5.5536961e-40 0.023054764 0.021818511 0.9994961 0
0.22411864 -0.16581662 -0.035230573 2.7878132e-40 0.023629306 0.0022575243 0.99971825 0
0.23051833 -0.1648484 -0.035264589 2.7878132e-40 0.0026425004 -0.0091618979 0.99995452 0
0.23759374 -0.16450183 -0.035289306 1.8658569e-40 -0.011390462 -0.010930146 0.99987537 0
0.2436641 -0.16467279 -0.035178293 1.8658569e-40 -0.018324416 -0.020575821 0.99962032 0
0.24803534 -0.16447097 -0.035023578 1.8658289e-40 -0.053849336 -0.016629882 0.99841058 0
0.25569287 -0.16586691 -0.034704164 2.7841418e-40 -0.017886344 -0.0055286312 0.99982476 0
0.26148841 -0.16624992 -0.034677595 2.7841979e-40 0.0011675782 0.044775486 0.99899638 0
0.26664114 -0.16547383 -0.034754157 9.4385859e-41 0.11171867 0.053396542 0.99230427 0
0.27086627 -0.16295455 -0.035690952 2.5461593e-42 0.23610957 -0.013007639 0.97163939 0
0.087120719 -0.15964371 -0.03598617 2.7986873e-40 -0.016853148 0.054573748 0.99836749 0
0.09306211 -0.15960729 -0.035863549 5.5573535e-40 -0.052706413 0.028147127 0.99821329 0
0.098479338 -0.15885331 -0.035704035 3.7134269e-40 -0.023596838 0.027002897 0.99935675 0
0.10555046 -0.15962623 -0.035573214 2.7914426e-40 -0.010976562 0.022429336 0.99968821 0
0.11182237 -0.1581279 -0.035466421 4.6353552e-40 -0.025698233 0.036137633 0.9990164 0
0.1172452 -0.16001727 -0.035392892 1.8695003e-40 -0.0084045473 0.012237698 0.99988979 0
0.12456688 -0.15996973 -0.035210054 3.7062383e-40 -0.017655142 0.024033874 0.99955523 0
0.12928474 -0.15909354 -0.035180926 4.6281946e-40 -0.016726913 0.031835925 0.99935317 0
0.13429672 -0.1574757 -0.03516135 2.7878413e-40 -0.0084894123 0.027219692 0.99959344 0
0.14145857 -0.15874754 -0.035104278 2.7842679e-40 -0.008658913 0.004657865 0.99995166 0
0.14854887 -0.15877819 -0.035010748 4.6281946e-40 -0.0088412808 0.0046215677 0.99995023 0
0.15215558 -0.1573614 -0.035001289 1.8623257e-40 0.0046646711 0.0089237411 0.99994934 0
0.15860331 -0.16056998 -0.034977958 2.7914286e-40 0.0048206807 0.0090431478 0.99994749 0
0.16454355 -0.15894659 -0.034910291 1.8694863e-40 0.0005320062 0.014998769 0.99988735 0
0.16956951 -0.15946512 -0.03492615 3.7097976e-40 -0.0054199095 0.018103367 0.99982148 0
0.17709407 -0.15934621 -0.034898646 2.7878413e-40 0.0070674163 0.013241808 0.99988735 0
0.18486127 -0.15939057 -0.034956265 5.5501368e-40 0.0094049238 0.017607681 0.99980074 0
0.18870969 -0.15868135 -0.034990903 2.7878413e-40 0.0033153591 0.035834655 0.99935222 0
0.19570178 -0.1586256 -0.035022661 3.7098116e-40 -0.023451213 0.012530004 0.99964648 0
0.20293236 -0.16046442 -0.034926731 1.865885e-40 0.022376148 0.021473054 0.99951899 0
0.20557225 -0.15807216 -0.035074186 1.865885e-40 0.030429756 0.028895326 0.9991191 0
0.21191949 -0.15957943 -0.035188988 3.7097835e-40 0.0094825514 0.017661408 0.99979901 0
0.21776341 -0.15860562 -0.035181537 1.8658569e-40 -0.0028131243 0.0091091953 0.99995452 0
0.22474155 -0.15917033 -0.035185281 2.7878132e-40 -0.005166214 -0.020169558 0.99978322 0
0.23135477 -0.16037938 -0.035251264 9.4390063e-41 0.017082872 -0.0094361492 0.99980956 0
0.23823413 -0.15738571 -0.035207607 9.4390063e-41 -0.0091653317 -0.017533721 0.99980426 0
0.2440792 -0.15965845 -0.035049014 9.4387261e-41 -0.036331255 -0.025884954 0.99900448 0
0.24990968 -0.1612464 -0.03483424 2.7841839e-40 -0.048239924 -0.034460802 0.99824113 0
0.25543839 -0.15817615 -0.034555182 1.8658289e-40 -0.012977414 -0.038283713 0.9991827 0
0.26197433 -0.15872084 -0.034577619 1.8658009e-40 0.031930245 -0.039570954 0.99870646 0
0.2685439 -0.15928969 -0.035209455 1.8658149e-40 0.18074128 -0.016491499 0.98339236 0
0.095788561 -0.15421052 -0.035923943 2.7914706e-40 -0.026098384 0.036939904 0.99897665 0
0.099304058 -0.15296237 -0.03587858 1.8694863e-40 -0.025667585 0.036705367 0.99899644 0
0.10369916 -0.15130669 -0.035788734 1.865899e-40 -0.035341587 0.018474024 0.99920452 0
0.10995764 -0.15421711 -0.035600737 3.7134129e-40 -0.019547228 0.016240783 0.99967706 0
0.11750723 -0.15322013 -0.035490617 2.7914286e-40 -0.020701144 0.018331088 0.9996177 0
0.12230513 -0.15300472 -0.035459876 2.7878413e-40 -0.0017418766 0.038821463 0.99924463 0
0.12831932 -0.15475333 -0.035343733 1.865899e-40 -0.015479151 0.034502573 0.99928468 0
0.14255974 -0.15424314 -0.035106119 2.7842679e-40 -0.01353072 -0.003979634 0.99990052 0
0.14431661 -0.15099458 -0.035123136 4.6281946e-40 0.0093285693 0.017845888 0.99979728 0
0.15368311 -0.15293826 -0.035044342 3.7098116e-40 -0.0084705446 0.012132979 0.99989051 0
0.15858226 -0.15244736 -0.03501714 3.7097976e-40 -0.0026792982 0.0089755794 0.99995613 0
0.16448137 -0.1530194 -0.035039667 3.7097976e-40 0.0093179047 0.017843103 0.9997974 0
0.17291827 -0.15248485 -0.03502807 1.8694863e-40 -0.021986885 0.022738196 0.99949968 0
0.17764363 -0.15343763 -0.034998916 1.865885e-40 0.016444888 0.030883353 0.99938774 0
0.18372984 -0.1525014 -0.035126608 9.4392866e-41 -0.0082747564 0.027231947 0.99959493 0
0.18934667 -0.15276912 -0.035103682 3.7097976e-40 0.0071316324 0.013260566 0.99988669 0
0.19290717 -0.1500883 -0.035100002 3.7062383e-40 0 0 1 0
0.20080835 -0.1516671 -0.035141263 2.784282e-40 0.012375976 0.023419578 0.99964911 0
0.20513831 -0.1534099 -0.035155606 2.7841979e-40 0.018407462 0.01309895 0.99974477 0
0.21290398 -0.15232617 -0.035296049 1.8658709e-40 0.0032364686 0.0058088661 0.99997789 0
0.21941675 -0.15240999 -0.035191145 1.8658569e-40 -0.02087401 0.0034013528 0.99977636 0
0.22374609 -0.15366694 -0.035102375 3.7097695e-40 -0.0087564718 0.004776279 0.99995029 0
0.23141721 -0.15418817 -0.035190739 1.8658429e-40 0.012845145 -0.0071599712 0.99989182 0
0.23710163 -0.15261815 -0.035114884 9.4027127e-41 -0.01816266 -0.020524299 0.99962437 0
0.24328901 -0.15357184 -0.03492742 1.8658289e-40 -0.054321669 -0.016408224 0.99838865 0
0.2492214 -0.1533222 -0.034621239 2.7841979e-40 -0.033266556 -0.020194417 0.99924248 0
0.25488526 -0.15408152 -0.034443822 1.8622136e-40 -0.031619705 -0.028030546 0.99910688 0
0.25948957 -0.15227686 -0.034264158 9.4388662e-41 -0.0053903558 -0.031255644 0.99949688 0
0.26789039 -0.15525384 -0.03499943 9.4027127e-41 0.1554396 -0.017131817 0.98769683 0
0.10133022 -0.14695646 -0.03595373 2.7914286e-40 -0.035505902 0.018961497 0.99918956 0
0.10496156 -0.14566742 -0.035850957 2.7950019e-40 -0.021846958 0.02297136 0.99949741 0
0.11231067 -0.1469505 -0.035684139 2.7878553e-40 -0.017141102 0.027039545 0.9994874 0
0.1184316 -0.14760213 -0.035654686 1.8694583e-40 0.0050192755 0.031333908 0.9994964 0
0.12223043 -0.1469446 -0.035634957 1.8694723e-40 -0.01120015 0.021121375 0.9997142 0
0.13452403 -0.14793698 -0.035332024 2.7878413e-40 -0.020287806 0.0085171461 0.99975795 0
0.13962041 -0.14804581 -0.035205901 3.7098256e-40 -0.029487597 0.015617437 0.99944311 0
0.14620291 -0.14834605 -0.035183758 1.865899e-40 0.00043092039 0.014922756 0.9998886 0
0.15275504 -0.14776124 -0.035111077 2.7878553e-40 -0.006448647 0.0093000093 0.99993598 0
0.15853427 -0.14676131 -0.035143878 3.7097976e-40 -0.0023071812 0.024049586 0.99970806 0
0.16479887 -0.14729577 -0.035166167 2.7878413e-40 0.020565879 0.0282929 0.9993881 0
0.16941129 -0.14714988 -0.035220008 3.7062383e-40 0.013661641 0.0042190501 0.99989778 0
0.17703424 -0.14705874 -0.035234507 3.7098116e-40 0.016102444 0.030955212 0.99939108 0
0.18339717 -0.14803523 -0.035217773 1.8623116e-40 -0.026885329 0.0064886617 0.99961746 0
0.1899516 -0.14725876 -0.035179302 1.865885e-40 -0.01282022 0.018151822 0.99975306 0
0.1945761 -0.1464584 -0.035182543 1.865899e-40 0.0026731759 0.026744835 0.99963874 0
0.20051803 -0.14626047 -0.035266034 2.7878553e-40 0.0095334211 0.028925223 0.9995361 0
0.2076426 -0.14729364 -0.035282832 1.865899e-40 0.0063685435 0.011675682 0.99991155 0
0.21385784 -0.14569698 -0.035273641 1.8622836e-40 0.011790016 -0.0064276364 0.99990988 0
0.21971458 -0.14776319 -0.035223644 1.8658429e-40 -0.011714077 0.0061850194 0.99991226 0
0.22457415 -0.14540172 -0.035145871 2.7877852e-40 -0.031329036 0.0050230129 0.99949652 0
0.2305081 -0.14745109 -0.035070986 2.7841839e-40 0.0063680722 -0.020417772 0.9997713 0
0.23764122 -0.14685428 -0.035022914 2.7841979e-40 -0.011389909 -0.01082986 0.9998765 0
0.24409439 -0.14732096 -0.034852251 2.7877852e-40 -0.035713661 -0.0034931654 0.99935591 0
0.24928629 -0.14595528 -0.034582041 9.4385859e-41 -0.058190521 0.0080209086 0.99827331 0
0.25621119 -0.14522232 -0.034176394 9.4385859e-41 -0.054326393 -0.01698296 0.99837875 0
0.26159412 -0.14694579 -0.03413992 2.7841699e-40 0.030972177 -0.02590772 0.99918449 0
0.26666978 -0.14729972 -0.034514289 1.8622136e-40 0.21144292 -0.031806007 0.97687262 0
0.27145249 -0.1473067 -0.035930891 9.4387261e-41 0.36031026 -0.040077657 0.93197119 0
0.10548759 -0.14346395 -0.035906203 2.7914006e-40 -0.021930825 0.023225376 0.99948967 0
0.10987945 -0.1410531 -0.035906833 3.7097835e-40 -0.0084759481 0.027244888 0.9995929 0
0.11621249 -0.13903885 -0.035910014 2.7878132e-40 -0.0081240973 0.027024275 0.99960178 0
0.12289819 -0.14014588 -0.035725273 1.8694443e-40 -0.028536839 0.020717671 0.99937803 0
0.130174 -0.14207837 -0.035513315 2.7878272e-40 -0.030887658 0.016389083 0.99938852 0
0.13670343 -0.14193964 -0.03536129 4.6317539e-40 -0.0085152565 0.027169589 0.99959457 0
0.14168212 -0.13994779 -0.035354853 3.7098116e-40 -0.021651072 0.022968806 0.99950171 0
0.14739628 -0.14101109 -0.035205521 2.7878413e-40 -0.0062072231 0.020436551 0.99977189 0
0.15354019 -0.14122282 -0.035252851 2.7878413e-40 0.016036028 0.029399432 0.99943912 0
0.15995981 -0.13906707 -0.035313558 1.865899e-40 0.018813249 0.020510409 0.99961257 0
0.16527562 -0.13979031 -0.035325933 1.865885e-40 -0.029409111 0.015771111 0.99944305 0
0.17105754 -0.13971172 -0.035289958 3.7097976e-40 0.0094769644 0.017658569 0.99979913 0
0.17763351 -0.14066617 -0.035355706 2.7878553e-40 0.021079889 0.011356861 0.9997133 0
0.18390082 -0.14337696 -0.035270121 1.8623116e-40 0.00021620619 0.029376747 0.9995684 0
0.1874702 -0.14079344 -0.035372406 3.7097976e-40 -0.0079965182 0.026989074 0.99960375 0
0.19387159 -0.14364958 -0.035264835 2.7878413e-40 0.01004413 0.040165167 0.99914259 0
0.20180877 -0.13980787 -0.035392154 2.7878413e-40 -0.0059489054 0.0031096672 0.99997753 0
0.2077868 -0.14021532 -0.035305947 3.7097695e-40 -0.011786746 0.006293939 0.99991065 0
0.2131273 -0.14152196 -0.035242684 3.7097695e-40 -0.015189641 0.00016675047 0.99988461 0
0.21846345 -0.14310019 -0.035235364 3.7097835e-40 -0.026755674 -0.008124792 0.99960899 0
0.22480914 -0.14150555 -0.035107709 2.7841839e-40 -0.02011968 -0.006118862 0.99977881 0
0.23140001 -0.14138682 -0.035 4.6280965e-40 0 0 1 0
0.23708853 -0.14046836 -0.034961894 2.7877852e-40 -0.013460875 -0.0040181829 0.99990135 0
0.24263221 -0.1413995 -0.034867682 3.7097415e-40 -0.02684259 -0.0082896221 0.9996053 0
0.24725869 -0.13957089 -0.034716465 9.4387261e-41 -0.044890448 -0.021199208 0.99876696 0
0.25522792 -0.14140794 -0.034215085 2.7841699e-40 -0.071471676 -0.0063525867 0.99742246 0
0.2605114 -0.14065397 -0.033964522 2.7877852e-40 0.0041025793 -0.035597503 0.99935782 0
0.26753375 -0.14086741 -0.034507141 1.8622276e-40 0.21374953 -0.03466168 0.97627342 0
0.2712642 -0.14091931 -0.035425995 9.4387261e-41 0.47119382 -0.029939432 0.8815214 0
0.11845946 -0.13666859 -0.035921093 1.8658709e-40 -0.017806221 0.0092036407 0.99979907 0
0.12231401 -0.1348345 -0.035846315 2.7878132e-40 -0.024682855 0.0071428581 0.99966979 0
0.12954441 -0.13614115 -0.035646617 3.7133709e-40 -0.028737357 0.020824652 0.9993701 0
0.13443367 -0.13620216 -0.035521969 3.7026089e-40 -0.01277413 0.018236283 0.99975216 0
0.1403231 -0.13624011 -0.035439454 3.7097976e-40 -0.017610511 0.0094029112 0.99980074 0
0.14684477 -0.13470545 -0.035393868 1.8694863e-40 0.0093191341 0.032184165 0.99943846 0
0.15354705 -0.13433853 -0.035442121 2.7878132e-40 -0.0036221279 0.024702204 0.99968827 0
0.15830821 -0.1335665 -0.035472143 1.8730456e-40 0.00081082113 0.044984601 0.99898738 0
0.16738768 -0.13437474 -0.035413489 2.7878413e-40 -0.0085152565 0.027169589 0.99959457 0
0.17145905 -0.133386 -0.035479371 2.7878413e-40 0.018646171 0.035670795 0.99918962 0
0.17609002 -0.13531679 -0.035439406 3.7062102e-40 0.00063004391 0.02967504 0.99955934 0
0.18368529 -0.13542555 -0.035519183 2.7878693e-40 0.005054398 0.031218085 0.9994998 0
0.19029987 -0.13716879 -0.035496786 4.6317539e-40 0.014415214 0.026427938 0.99954683 0
0.19429155 -0.13509591 -0.035555441 1.865885e-40 -0.011410905 0.021373477 0.99970645 0
0.20010763 -0.13447215 -0.035409633 2.7878413e-40 -0.020894999 0.0033470287 0.99977607 0
0.20636867 -0.13449682 -0.035342678 3.7097695e-40 -0.014934793 0.00028975616 0.99988842 0
0.21397123 -0.13488126 -0.035266094 2.7841839e-40 -0.013586364 -0.0042584282 0.99989867 0
0.21986791 -0.13638391 -0.035157837 1.8622556e-40 -0.017642371 0.0093131401 0.99980098 0
0.22600925 -0.13582578 -0.035098199 2.7877852e-40 -0.0058941469 0.0030810437 0.99997789 0
0.23122986 -0.13480254 -0.035046831 1.8658289e-40 -0.017717723 0.0093237255 0.99979955 0
0.23679939 -0.13758588 -0.034990612 2.7841839e-40 -0.013531234 -0.0039797765 0.99990052 0
0.24306197 -0.13484925 -0.034775741 2.7841699e-40 -0.036123294 -0.011188332 0.99928468 0
0.24818414 -0.13578556 -0.034566559 1.8658289e-40 -0.058734778 -0.025070405 0.99795878 0
0.25462586 -0.13524158 -0.034221631 1.8586262e-40 -0.051581584 -0.0011064255 0.99866813 0
0.26197258 -0.13532403 -0.03390776 1.8622136e-40 0.008633404 -0.0046829316 0.99995178 0
0.26691502 -0.1336686 -0.034196556 9.4387261e-41 0.12126512 -0.04360678 0.99166179 0
0.27173495 -0.13731235 -0.035506822 2.7841839e-40 0.36125773 0.0018918035 0.93246412 0
0.11827919 -0.12906179 -0.035944741 4.6317539e-40 -0.035603426 0.0040103197 0.99935794 0
0.12329407 -0.12816897 -0.035902113 3.7097695e-40 0.0052003246 0.031003183 0.99950576 0
0.13027267 -0.12932016 -0.035768989 1.865885e-40 -0.03044139 0.020479091 0.99932671 0
0.1343376 -0.12665914 -0.035792463 5.5537102e-40 -0.012596306 0.040188164 0.99911273 0
0.141453 -0.12899595 -0.035637546 2.7878272e-40 -0.008301137 0.041514561 0.99910337 0
0.14701322 -0.12758531 -0.035645027 2.7878272e-40 -0.0045486162 0.047882892 0.9988426 0
0.15181415 -0.12791272 -0.035619657 2.7877852e-40 -0.0024935261 0.023951573 0.99970996 0
0.15936004 -0.12847443 -0.035636168 9.4750197e-41 -0.0024406884 0.024052013 0.9997077 0
0.16470452 -0.12958895 -0.035564478 2.7878413e-40 -0.0079639852 0.026940657 0.99960536 0
0.17062694 -0.12940492 -0.035556201 4.6353272e-40 0.0032625545 0.020610249 0.99978226 0
0.17723984 -0.12892586 -0.035623901 2.7914286e-40 0.013974742 0.026555777 0.99954969 0
0.18265265 -0.12925662 -0.035667673 3.7097976e-40 0.0096444879 0.017681591 0.99979717 0
0.18895739 -0.12957247 -0.035624951 3.7062102e-40 -0.011582872 0.0063174847 0.99991298 0
0.19405167 -0.12890272 -0.03558081 2.7878132e-40 -0.014980315 0.00032074851 0.99988776 0
0.19965237 -0.12773733 -0.035522521 2.7877992e-40 -0.002278598 0.023963375 0.9997102 0
0.20670627 -0.13126589 -0.035380844 2.7877712e-40 -0.011518874 0.021295045 0.99970686 0
0.21303058 -0.13012245 -0.035336677 4.6281105e-40 -0.0055774981 0.018056296 0.99982142 0
0.21923569 -0.12920401 -0.03528586 1.8658289e-40 -0.021178663 0.01130634 0.99971175 0
0.22514562 -0.12876053 -0.035195965 4.6280965e-40 -0.0057609882 0.0178244 0.99982452 0
0.23052387 -0.1275591 -0.035081878 4.6316978e-40 -0.021982929 0.00063063268 0.99975818 0
0.23749006 -0.13024294 -0.034918621 1.8622276e-40 -0.02400196 -0.0024671606 0.99970889 0
0.24318863 -0.12918621 -0.034771778 1.8657869e-40 -0.028881026 0.0099181989 0.99953365 0
0.24867718 -0.12942773 -0.034555275 1.8658009e-40 -0.050464757 0.0039993622 0.99871784 0
0.25436747 -0.12983623 -0.034220293 1.8658149e-40 -0.056312587 -0.010112118 0.998362 0
0.26131877 -0.12875396 -0.033931505 1.8586122e-40 -0.027295066 -0.0083771674 0.9995923 0
0.26654923 -0.12775666 -0.034046471 1.8658149e-40 0.1088649 -0.0070724543 0.99403137 0
0.27189824 -0.13083877 -0.035275314 9.4024324e-41 0.38165852 -0.059348449 0.92239606 0
0.1196116 -0.1253572 -0.035970166 4.6317258e-40 0.0052003255 0.031003179 0.99950576 0
0.13570015 -0.12079699 -0.03594096 3.7025809e-40 -0.0078211483 0.026984759 0.99960524 0
0.14090909 -0.12429459 -0.035837352 1.865885e-40 0.005019241 0.031333901 0.9994964 0
0.1486237 -0.12450181 -0.035735339 3.7062102e-40 -0.021690957 0.022698509 0.99950701 0
0.15267472 -0.12272257 -0.035770658 2.7914006e-40 -0.0022300354 0.039069306 0.99923402 0
0.16003515 -0.12324908 -0.035723832 2.7914286e-40 -0.01746463 0.020531649 0.99963665 0
0.16511658 -0.12201131 -0.035711139 1.8694583e-40 -0.0020894269 0.023933576 0.99971133 0
0.16858217 -0.12252268 -0.035672646 1.8694443e-40 0.0092316838 0.017678404 0.9998011 0
0.17582433 -0.12299436 -0.035749849 1.865885e-40 -0.005357082 0.0179474 0.99982458 0
0.18198971 -0.12480196 -0.035700001 2.7878132e-40 0 0 1 0
0.18845513 -0.12303672 -0.035643321 1.8658569e-40 -0.0071629658 0.0037504954 0.99996728 0
0.19299115 -0.12135748 -0.035648011 2.7806526e-40 -0.017512726 0.0095524387 0.99980104 0
0.20047233 -0.12291493 -0.035588197 2.7842259e-40 -0.0088409353 0.0046214205 0.99995029 0
0.20806813 -0.12466362 -0.035451204 1.8658569e-40 -0.017791573 0.0094341161 0.99979728 0
0.21296887 -0.12359968 -0.03537197 3.7061402e-40 -0.013452431 -0.0039218031 0.99990183 0
0.22061667 -0.12170009 -0.035299122 3.7061402e-40 -0.013298401 -0.0041068727 0.99990314 0
0.22506237 -0.12293961 -0.035223201 1.8658289e-40 -0.011033564 0.00033814917 0.99993908 0
0.23028982 -0.12321748 -0.03511833 2.7913585e-40 -0.033593606 0.00078031089 0.99943531 0
0.23587814 -0.12258585 -0.034973476 9.4385859e-41 -0.019778568 0.0050532511 0.99979162 0
0.24330211 -0.1227508 -0.034818918 9.4024324e-41 -0.04483404 0.00084494567 0.99899411 0
0.24734949 -0.12264891 -0.034569584 2.5475606e-42 -0.054573093 -0.016853495 0.99836755 0
0.25591758 -0.12374181 -0.034071114 1.8621995e-40 -0.062358461 -0.003788633 0.99804658 0
0.2618219 -0.12055026 -0.033799998 2.5433567e-42 0 0 1 0
0.2649399 -0.1237132 -0.03388932 9.4383057e-41 0.075427145 -0.0072498182 0.99712497 0
0.2714633 -0.12264482 -0.034961898 1.8621995e-40 0.29761532 0.0067103063 0.9546622 0
-0.014872744 -0.11535589 -0.035314813 1.8619333e-40 -0.02514744 -0.579355 0.81468731 0
-0.0051167989 -0.1142737 -0.033930011 1.8583039e-40 -0.19133195 -0.38050109 0.90477127 0
0.0035317501 -0.115417 -0.034931641 9.3638967e-41 0.02417193 -0.69457203 0.71901697 0
0.0090901563 -0.11599866 -0.03504245 1.8655206e-40 0.020556001 -0.42050245 0.90705848 0
0.01525381 -0.11674057 -0.034759507 9.3999101e-41 -0.085427448 -0.44045511 0.89370096 0
0.021187749 -0.11672734 -0.034413673 9.364177e-41 -0.039985865 -0.47609618 0.87848365 0
0.028170817 -0.11570005 -0.033535983 9.3645974e-41 0.0079987841 -0.61543119 0.78815001 0
0.033029847 -0.11569833 -0.03377359 2.1650061e-42 0.03191917 -0.70576566 0.70772588 0
0.040174961 -0.11514791 -0.033860642 9.4001904e-41 0.11214225 -0.72844845 0.67586017 0
0.042493552 -0.11576506 -0.034732543 1.8620174e-40 0.10612333 -0.63168424 0.76792771 0
0.048325039 -0.11605746 -0.035235051 2.7912184e-40 -0.039626252 -0.54804927 0.83550692 0
0.13707998 -0.11720089 -0.035974916 5.5465215e-40 -0.017445887 0.0093149981 0.99980444 0
0.14287089 -0.11800987 -0.035922457 4.6245512e-40 0.0061590886 0.011782595 0.99991161 0
0.14727022 -0.11932666 -0.035907406 2.7878132e-40 0.011124236 0.061979033 0.99801552 0
0.15029486 -0.11934734 -0.035922039 1.8730456e-40 -0.015898846 0.054054398 0.99841142 0
0.15891764 -0.11703205 -0.035887141 3.7133569e-40 -0.0079672001 0.027063616 0.99960196 0
0.16530226 -0.11570229 -0.03592534 1.8658289e-40 -0.025698299 0.036137626 0.9990164 0
0.17083304 -0.11670224 -0.035844836 3.7097695e-40 0.012697354 0.023644684 0.99963981 0
0.17664886 -0.11808795 -0.035812587 1.8658569e-40 -0.021700313 0.011739839 0.9996956 0
0.18273477 -0.11632705 -0.035698187 2.7878132e-40 -0.011761984 0.0062084114 0.99991155 0
0.1905421 -0.11682248 -0.035698809 3.7097695e-40 0.008973808 0.0026787336 0.99995613 0
0.19560188 -0.11638405 -0.035649471 2.7842259e-40 -0.017625364 0.0093459301 0.99980098 0
0.20200998 -0.11813708 -0.035597764 2.7842119e-40 -0.0058376198 0.0031841504 0.99997789 0
0.20779896 -0.11701781 -0.035552356 3.7025809e-40 -0.01740966 0.024103938 0.99955785 0
0.21433485 -0.1161603 -0.035432979 9.474319e-41 -0.035126664 0.018868066 0.9992047 0
0.217659 -0.11735518 -0.0353375 2.7841839e-40 -0.029771036 0.00096158788 0.99955624 0
0.22403228 -0.11589961 -0.035251968 9.474319e-41 -0.01768166 0.009242692 0.99980098 0
0.22932169 -0.1156964 -0.035160415 1.8693882e-40 -0.017640332 0.0095142918 0.99979913 0
0.23834999 -0.11690054 -0.034926314 9.474319e-41 -0.014864986 0.00052618334 0.99988937 0
0.2444073 -0.11657624 -0.034728393 1.8694022e-40 -0.05351438 -0.0051015317 0.99855405 0
0.24964704 -0.11810345 -0.034460645 9.4384458e-41 -0.047887806 -0.0045577865 0.99884236 0
0.25508234 -0.11704084 -0.034109425 9.4744592e-41 -0.069020376 -0.0017056481 0.99761379 0
0.26140457 -0.11856009 -0.033819608 1.8658009e-40 -0.013661604 -0.0042190687 0.99989778 0
0.26695427 -0.11598922 -0.034053333 1.8693882e-40 0.097603023 -0.011307396 0.99516118 0
0.27231741 -0.1158099 -0.035123311 9.4384458e-41 0.32790434 -0.0070964606 0.94468427 0
-0.038171347 -0.10877319 -0.035366412 1.8583039e-40 -0.32045388 -0.72768807 0.60644817 0
-0.033303685 -0.10868606 -0.033799212 1.7978659e-42 -0.26917723 -0.44047406 0.85646141 0
-0.026994204 -0.11061762 -0.033549614 9.3636165e-41 -0.14737193 -0.61715913 0.77291411 0
-0.020438831 -0.11106258 -0.03219562 9.3636165e-41 -0.24340358 -0.73900366 0.62819451 0
-0.016513942 -0.11198099 -0.032535538 9.4356432e-41 -0.10032594 -0.77065331 0.62930775 0
-0.0089793103 -0.11209645 -0.031388965 9.3634763e-41 -0.033959638 -0.81385905 0.58006907 0
-0.0031411196 -0.11300862 -0.032608144 1.7992672e-42 -0.063736215 -0.82581311 0.56033051 0
0.003678737 -0.11343364 -0.032463394 9.4356432e-41 0.13424875 -0.88220042 0.45133105 0
0.0080169784 -0.11317297 -0.032812204 9.3996298e-41 -0.0074511901 -0.8459096 0.53327423 0
0.016019052 -0.11212417 -0.031461705 2.1608022e-42 0.033145737 -0.76568258 0.64236403 0
0.02121779 -0.11306307 -0.031981058 1.8020698e-42 -0.081136949 -0.76400077 0.64009345 0
0.027558351 -0.11371044 -0.031983119 9.4004706e-41 -0.028047482 -0.75599605 0.65397507 0
0.033456452 -0.11380161 -0.03043543 9.4000502e-41 -0.053134296 -0.97413689 0.21962276 0
0.039816763 -0.1131781 -0.031575706 9.4003305e-41 0.17208429 -0.8041324 0.56899738 0
0.046099946 -0.11164443 -0.031437691 1.8620174e-40 0.2947115 -0.73796558 0.60708481 0
0.052052077 -0.11026556 -0.033073872 2.7804144e-40 0.35638276 -0.5781756 0.73396474 0
0.05756145 -0.11029161 -0.034832485 2.5349489e-42 0.25461495 -0.41063523 0.8755284 0
0.062423483 -0.10904721 -0.035881057 9.4373248e-41 0.36814418 -0.092034332 0.92520243 0
0.16085722 -0.11338829 -0.035986435 9.4390063e-41 0.018646125 0.035670821 0.99918967 0
0.16671315 -0.11013049 -0.035925239 4.6317539e-40 -0.052841444 -0.016562168 0.99846554 0
0.17096199 -0.10993936 -0.035877403 3.7097275e-40 0.00020240249 0.0090681501 0.99995887 0
0.17741874 -0.10969172 -0.035895605 3.7097695e-40 -0.015162705 0.013859491 0.999789 0
0.1826786 -0.11119737 -0.035807207 1.8694443e-40 -0.0092799896 0.020907847 0.99973828 0
0.18942273 -0.10946635 -0.035741571 3.7061822e-40 -0.010098566 0.016439807 0.99981385 0
0.19211347 -0.11112975 -0.035700001 2.7878132e-40 0 0 1 0
0.20136587 -0.10945684 -0.035688028 3.7025669e-40 -0.0089091016 0.009035429 0.99991947 0
0.20780444 -0.11076166 -0.035640858 2.7806106e-40 -0.012472164 0.0021408289 0.99991995 0
0.21499111 -0.10855456 -0.035461366 2.7806246e-40 -0.035341613 0.018473979 0.99920452 0
0.22060741 -0.11262748 -0.035316598 9.474319e-41 -0.0028393774 0.0090589663 0.99995494 0
0.22570461 -0.1100247 -0.035277203 1.8657869e-40 -0.017448533 0.009446823 0.99980313 0
0.23120852 -0.11133182 -0.035168145 3.7133008e-40 -0.017736211 0.0092711793 0.99979973 0
0.23728789 -0.11120959 -0.035023123 1.8693882e-40 -0.03556155 0.018856728 0.99918962 0
0.24276704 -0.11092848 -0.034748103 9.474319e-41 -0.056459967 -0.0072158761 0.99837875 0
0.24852106 -0.11067452 -0.034506962 9.474319e-41 -0.052965015 0.016650764 0.99845755 0
0.25422928 -0.11117616 -0.034163907 9.4741789e-41 -0.057927363 -0.0023560962 0.99831802 0
0.26066455 -0.11143479 -0.033831246 1.8658149e-40 -0.037876956 0.0033248207 0.99927688 0
0.26846528 -0.1115329 -0.034190547 4.6316978e-40 0.13921669 0.014077861 0.9901619 0
0.27270067 -0.1093499 -0.035294246 1.8300958e-42 0.32762206 -0.023830125 0.94450831 0
-0.044094715 -0.10315969 -0.033314392 1.4349296e-42 -0.46212918 -0.50245678 0.73073512 0
-0.038996954 -0.10490257 -0.032217275 9.3992094e-41 -0.18361522 -0.58686888 0.78858757 0
-0.033011336 -0.10513644 -0.032083608 1.7978659e-42 -0.33043548 -0.74500418 0.57946622 0
-0.026295846 -0.10733754 -0.030217508 1.85836e-40 -0.15965091 -0.85939622 0.48574656 0
0.057663102 -0.10506134 -0.031990204 1.8620734e-40 0.4203113 -0.58891398 0.69030333 0
0.063955717 -0.10357853 -0.034082435 2.7840437e-40 0.36785021 -0.44212487 0.81805366 0
0.17013104 -0.10380349 -0.03598538 2.7878132e-40 0.00080307561 0.022290479 0.99975121 0
0.17419419 -0.10429423 -0.035999998 3.7097695e-40 0 0 1 0
0.18388456 -0.103343 -0.0359 2.7877852e-40 0 0 1 0
0.19052505 -0.10667527 -0.035770804 6.4756384e-40 -0.0085341856 0.026764547 0.99960536 0
0.19628419 -0.10518209 -0.035773676 2.7877992e-40 -0.0032459947 -0.0059509813 0.99997711 0
0.20060661 -0.1039013 -0.035696413 3.7061542e-40 -0.022426447 0.00056447863 0.99974835 0
0.20811337 -0.10289304 -0.035646982 3.7061542e-40 -0.0041472651 0.013423896 0.99990129 0
0.21254164 -0.1049345 -0.035558 3.7025809e-40 -0.017845925 0.0093285274 0.99979728 0
0.21763933 -0.10466167 -0.035469655 1.8658149e-40 -0.01443993 0.015316582 0.99977845 0
0.22488558 -0.10513752 -0.035337586 1.8657869e-40 -0.017724773 0.0093594659 0.99979913 0
0.23088801 -0.10382595 -0.035244022 2.7913445e-40 -0.017577691 0.0094526708 0.99980086 0
0.23739846 -0.10442098 -0.035108529 9.474319e-41 -0.031021545 0.016315319 0.99938554 0
0.24388254 -0.10369956 -0.03485791 9.474319e-41 -0.039989859 0.032037552 0.99868637 0
0.24951828 -0.1034117 -0.034544617 2.5475606e-42 -0.057970043 -0.0024045964 0.99831545 0
0.25513428 -0.1062182 -0.034136713 9.474319e-41 -0.056740511 0.012084743 0.99831581 0
0.26152882 -0.10398779 -0.033922847 9.474319e-41 0.00087220443 0.029749831 0.99955702 0
0.26794255 -0.10655074 -0.034172632 1.8693882e-40 0.12783848 0.010464476 0.99173981 0
0.27166781 -0.10405353 -0.034883197 9.474319e-41 0.26537991 0.012915671 0.96405745 0
-0.049631786 -0.097326674 -0.033396181 9.3634763e-41 -0.49817315 -0.70431429 0.50573212 0
-0.046929821 -0.10012581 -0.033570938 9.3631961e-41 -0.59905082 -0.53382581 0.59679818 0
-0.036182627 -0.10147309 -0.031151526 1.8583039e-40 -0.47716293 -0.85954577 0.18302086 0
0.063934714 -0.099255443 -0.031320997 3.7023707e-40 0.56293404 -0.54994339 0.61698258 0
0.067816727 -0.098286696 -0.033067044 1.8656888e-40 0.44407037 -0.43981093 0.78062016 0
0.073211789 -0.09805809 -0.035135407 2.7913025e-40 0.30902061 -0.30083677 0.90222144 0
0.17692944 -0.10124615 -0.035956576 2.1916308e-42 -0.013561927 -0.0041185129 0.99989957 0
0.18879421 -0.099960566 -0.035893995 1.8694302e-40 -0.0057917531 0.0031591326 0.99997824 0
0.1949307 -0.097967006 -0.035787515 1.8658289e-40 -0.01985414 0.016056763 0.9996739 0
0.20107979 -0.098285697 -0.035734519 2.7913445e-40 -0.0041351081 0.013618186 0.99989873 0
0.20752034 -0.10053299 -0.035679746 2.1916308e-42 -0.0273205 -0.0084372312 0.99959117 0
0.21410263 -0.10009654 -0.035570294 1.8658149e-40 -0.013088702 0.0069853305 0.99988997 0
0.22051167 -0.098647624 -0.035516266 1.8658289e-40 -0.011406445 0.021379547 0.99970639 0
0.22410251 -0.099099927 -0.03542009 2.7877852e-40 -0.026552603 0.014180101 0.99954689 0
0.23110735 -0.099897802 -0.035277307 2.7913305e-40 -0.017577713 0.0094526242 0.99980086 0
0.23658389 -0.097528443 -0.035271216 1.8693882e-40 0.0016061133 0.04456969 0.99900502 0
0.24155568 -0.098034084 -0.035130545 9.474319e-41 -0.052757345 0.028137241 0.99821091 0
0.24772468 -0.099578455 -0.034697674 1.8272932e-42 -0.05710071 0.042097636 0.99748045 0
0.25410971 -0.098771453 -0.034366462 1.8693882e-40 -0.065733694 0.046350058 0.99676013 0
0.25997585 -0.099879771 -0.034061011 2.1874269e-42 -0.017509207 0.053323511 0.99842376 0
0.26625985 -0.098996602 -0.034286804 2.7913445e-40 0.077568345 0.05289641 0.99558282 0
0.27132496 -0.099582352 -0.034929153 9.474319e-41 0.25971493 0.033807904 0.96509337 0
-0.054679357 -0.092146263 -0.03460674 1.44614e-42 -0.74856639 -0.3114402 0.58536601 0
-0.050871927 -0.092620693 -0.030591432 1.8511573e-40 -0.79675597 -0.31614804 0.51500517 0
0.069459662 -0.094372675 -0.031948846 1.8620874e-40 0.48871112 -0.35491914 0.79699045 0
0.07489796 -0.091275863 -0.034422413 1.8656748e-40 0.53426808 -0.44280818 0.72005451 0
0.18257786 -0.093764976 -0.035942715 1.8693882e-40 -0.0042020073 0.013606502 0.99989861 0
0.1904677 -0.094511472 -0.0359 1.8658289e-40 0 0 1 0
0.19495256 -0.093282484 -0.035874799 1.8622276e-40 -0.0084455833 0.012181438 0.99989015 0
0.20075376 -0.093626954 -0.035826769 2.7877992e-40 -0.0024905887 0.023820518 0.99971318 0
0.2065286 -0.093033642 -0.035767235 1.8658149e-40 -0.019697355 0.01612653 0.99967593 0
0.21218193 -0.093197644 -0.035688534 2.7841839e-40 0.003657816 0.035948966 0.99934697 0
0.21793215 -0.092067935 -0.035715371 2.7841839e-40 -0.016649017 0.039229471 0.99909151 0
0.22339866 -0.090742245 -0.035690479 1.8693882e-40 -0.0083484035 0.070764437 0.99745816 0
0.23128095 -0.093313619 -0.03547433 1.8658009e-40 -0.011205518 0.055529386 0.99839413 0
0.23631251 -0.093490265 -0.035447773 1.8693882e-40 -0.0079590818 0.027059104 0.99960214 0
0.24281882 -0.093035392 -0.03527889 9.474319e-41 -0.045698158 0.052471206 0.9975763 0
0.24823411 -0.092649467 -0.035064176 2.544758e-42 -0.030830195 0.054365993 0.99804497 0
0.25641841 -0.093243718 -0.034659527 9.4383057e-41 -0.042979654 0.079022445 0.99594587 0
0.26161444 -0.091083989 -0.034551386 1.8693882e-40 -0.016638042 0.054078795 0.99839807 0
0.26730835 -0.092738397 -0.034660783 1.8693882e-40 0.078063004 0.048946213 0.9957462 0
0.27200729 -0.093475282 -0.035451714 2.5475606e-42 0.28530809 0.08942578 0.95425487 0
-0.057564754 -0.085857742 -0.032274973 9.2931312e-41 -0.68417341 -0.55270398 0.47584149 0
-0.052457802 -0.088584974 -0.031022776 9.2921502e-41 -0.81078231 -0.40781769 0.41990086 0
0.076156139 -0.087358683 -0.03313693 1.8548708e-40 0.62602168 -0.40604568 0.66575044 0
0.079943419 -0.084723413 -0.034767237 2.7732397e-40 0.56174678 -0.21032085 0.80012852 0
0.18524516 -0.089499332 -0.035984673 9.4387261e-41 -0.017845923 0.0093285274 0.99979728 0
0.18883479 -0.08726494 -0.035985321 2.1916308e-42 -0.0042197118 0.013663922 0.99989778 0
0.19671007 -0.089345276 -0.035916746 1.8658289e-40 0.014777261 0.048615225 0.99870831 0
0.20170701 -0.088288248 -0.035919379 1.8658289e-40 -0.023256076 0.01268519 0.99964905 0
0.20782851 -0.087949559 -0.035932329 9.4387261e-41 0.020117685 0.080082886 0.99658519 0
0.21095385 -0.088437289 -0.035957549 9.4387261e-41 0.020828856 0.079712093 0.99660033 0
0.22054476 -0.087449566 -0.03588257 1.8622276e-40 -0.0074113244 0.049440168 0.99874961 0
0.22468631 -0.087984711 -0.035840735 9.4385859e-41 -0.0079543674 0.049133755 0.99876052 0
0.23120217 -0.086715192 -0.035813034 2.5475606e-42 -0.022912335 0.042365491 0.9988395 0
0.23839453 -0.087413475 -0.035630949 1.8693882e-40 -0.0009837799 0.040297348 0.99918723 0
0.24397931 -0.084910981 -0.035622906 2.7913305e-40 -0.061561275 0.010653435 0.99804646 0
0.24898088 -0.086844869 -0.035257123 1.8693882e-40 -0.048068758 0.037052147 0.99815655 0
0.25530368 -0.087844089 -0.034990262 1.8658149e-40 -0.037483685 0.025177158 0.99898005 0
0.25925583 -0.086499289 -0.034901224 9.474319e-41 -0.052768786 0.028782746 0.99819189 0
0.26603818 -0.086146578 -0.034959339 9.4384458e-41 0.10463475 0.080232888 0.99126899 0
0.27057967 -0.08650095 -0.035557661 3.7169021e-40 0.15845509 0.092304215 0.98304218 0
-0.062709332 -0.080945872 -0.034931842 3.6844481e-40 -0.58404684 -0.51382071 0.62839288 0
-0.058854446 -0.083410464 -0.032416657 1.8405074e-40 -0.76411718 -0.44948021 0.46270129 0
0.08032804 -0.08004462 -0.033591758 2.7695823e-40 0.64044422 -0.23685861 0.73056775 0
0.23300323 -0.080965176 -0.035943136 9.474319e-41 -0.035341587 0.018473964 0.99920452 0
0.23832738 -0.081498712 -0.035825562 1.8693742e-40 -0.021891486 0.023300668 0.99948877 0
0.24320662 -0.081430793 -0.035697814 3.7133008e-40 -0.026592799 0.014099822 0.99954695 0
0.24827026 -0.080467507 -0.035479166 2.1874269e-42 -0.038991317 0.032019716 0.99872643 0
0.25522184 -0.080558032 -0.035174705 9.474319e-41 -0.039699763 0.032590892 0.99868006 0
0.26103449 -0.080445379 -0.035036538 9.474319e-41 0.00096005882 0.033461098 0.99943954 0
0.2688365 -0.079571038 -0.035869677 1.8621995e-40 0.18589848 0.054676108 0.98104656 0
-0.066912688 -0.073941804 -0.033124551 1.8405355e-40 -0.55630159 -0.49163845 0.66994035 0
-0.06359145 -0.076185338 -0.031702388 1.8405215e-40 -0.72137719 -0.41892603 0.55146706 0
0.080743164 -0.074010879 -0.031551689 2.7695403e-40 0.8091839 -0.27456036 0.51945931 0
0.084038004 -0.074502699 -0.035409033 1.8440247e-40 0.6544643 -0.26148865 0.70943654 0
0.2381964 -0.07734897 -0.03592908 2.7913305e-40 -0.035841722 0.018319169 0.99918956 0
