# .PCD v0.7 - Point Cloud Data file format
VERSION 0.7
FIELDS x y z rgb normal_x normal_y normal_z curvature
SIZE 4 4 4 4 4 4 4 4
TYPE F F F F F F F F
COUNT 1 1 1 1 1 1 1 1
WIDTH 904
HEIGHT 1
VIEWPOINT 0 0 0 1 0 0 0
POINTS 904
DATA ascii
-0.36390001 0.36273 -0.54146999 1.5612076e-39 0 -0 1 0
-0.35045999 0.36142999 -0.54062998 1.928558e-39 0 -0 1 0
-0.33794001 0.36072001 -0.54062003 1.9285496e-39 0 -0 1 0
-0.10439 0.36282 -0.54105997 2.3902663e-39 0 -0 1 0
-0.091729999 0.36238 -0.54145998 2.2055079e-39 0 -0 1 0
0.053939998 0.36072001 -0.48638999 0 0 -0 1 0
-0.062479999 0.36234 -0.35997999 0 0 -0 1 0
0.05697 0.36103001 -0.35095999 0 0 -0 1 0
-0.059799999 0.36144999 -0.33087 0 0 -0 1 0
0.055289999 0.36256 -0.32449999 0 0 -0 1 0
-0.05342 0.36068001 -0.31733999 1.5414283e-44 0 -0 1 0
-0.0044399998 0.36216 -0.29556 0 0 -0 1 0
0.0052800002 0.36199 -0.29587001 0 0 -0 1 0
0.01473 0.36221001 -0.2965 0 0 -0 1 0
0.32262 0.35854 -0.54646999 1.8374456e-39 0 -0 1 0
0.33610001 0.35777 -0.54646999 1.5619349e-39 0 -0 1 0
0.28220999 0.35969999 -0.54487997 2.482099e-39 0 -0 1 0
0.29587001 0.3592 -0.54527998 2.1143884e-39 0 -0 1 0
0.30912 0.35874 -0.54566997 1.8374456e-39 0 -0 1 0
-0.32519999 0.35973001 -0.5402 1.8367141e-39 0 -0 1 0
-0.31228 0.359 -0.54018998 1.7448814e-39 0 -0 1 0
-0.29978001 0.35828999 -0.54018998 1.9285524e-39 0 -0 1 0
-0.28685999 0.35755 -0.54018003 2.2959028e-39 0 -0 1 0
-0.053029999 0.35907999 -0.53979999 0 0 -0 1 0
0.054099999 0.35953 -0.39482999 0 0 -0 1 0
0.049940001 0.35738 -0.33282 0 0 -0 1 0
0.044330001 0.35806 -0.31992 0 0 -0 1 0
-0.018929999 0.35767001 -0.30373001 0 0 -0 1 0
-0.0094999997 0.35712999 -0.30373001 0 0 -0 1 0
0.34887999 0.35677001 -0.54606003 9.1835917e-40 0 -0 1 0
0.050170001 0.35572001 -0.54343998 1.1020316e-39 0 -0 1 0
0.36164999 0.35576001 -0.54565001 1.0102017e-39 0 -0 1 0
0.37511 0.35499999 -0.54563999 1.2857138e-39 0 -0 1 0
0.062770002 0.35416999 -0.54220003 3.0356385e-39 0 -0 1 0
-0.27416 0.35657001 -0.53975999 1.928558e-39 0 -0 1 0
-0.26166999 0.35585999 -0.53974998 1.9285608e-39 0 -0 1 0
-0.24876 0.35512 -0.53974998 1.7448814e-39 0 -0 1 0
-0.23626 0.35442001 -0.53974003 2.2040659e-39 0 -0 1 0
0.047899999 0.35505 -0.49851 0 0 -0 1 0
-0.061799999 0.35488001 -0.48982999 2.3042055e-39 0 -0 1 0
0.050609998 0.35418999 -0.43959001 0 0 -0 1 0
-0.063019998 0.35534999 -0.43322 1.8367099e-40 0 -0 1 0
0.04882 0.35510001 -0.40577 0 0 -0 1 0
-0.060290001 0.35642001 -0.40033999 0 0 -0 1 0
-0.05768 0.35626 -0.36925 1.4012985e-45 0 -0 1 0
0.05136 0.35519001 -0.35923001 0 0 -0 1 0
-0.055059999 0.35437 -0.33840999 0 0 -0 1 0
0.034139998 0.35499001 -0.31663999 9.2218051e-41 0 -0 1 0
-0.043430001 0.35499999 -0.31274 2.9427268e-44 0 -0 1 0
0.38786 0.35398999 -0.54522997 1.4693834e-39 0 -0 1 0
0.40013 0.35216001 -0.54360998 1.3775437e-39 0 -0 1 0
0.41281 0.35115999 -0.54321003 1.0101933e-39 0 -0 1 0
0.07587 0.35315001 -0.54179001 3.3122282e-39 0 -0 1 0
0.088610001 0.35242999 -0.54177999 3.312231e-39 0 -0 1 0
0.10134 0.35170999 -0.54176998 3.4051441e-39 0 -0 1 0
0.11459 0.35124001 -0.54218 3.312947e-39 0 -0 1 0
-0.22376999 0.35371 -0.53974003 1.9285608e-39 0 -0 1 0
-0.21071 0.3527 -0.53930998 1.8367225e-39 0 -0 1 0
-0.19822 0.35199001 -0.53930998 2.1125906e-39 0 -0 1 0
-0.18573999 0.35128 -0.53930002 2.0203949e-39 0 -0 1 0
0.037050001 0.35396999 -0.53975999 0 0 -0 1 0
0.04211 0.35148999 -0.51397002 0 0 -0 1 0
-0.05706 0.35258001 -0.50757003 0 0 -0 1 0
-0.05855 0.35260999 -0.44806001 0 0 -0 1 0
-0.05322 0.35104001 -0.37907001 2.755205e-40 0 -0 1 0
0.04637 0.35104001 -0.36989999 0 0 -0 1 0
-0.050960001 0.35133001 -0.34957001 0 0 -0 1 0
0.045090001 0.35326001 -0.34279001 0 0 -0 1 0
0.039379999 0.35330999 -0.32848999 0 0 -0 1 0
-0.048909999 0.35222 -0.32284999 1.8515216e-40 0 -0 1 0
0.0142 0.35137001 -0.31239 1.4012985e-45 0 -0 1 0
0.02382 0.35192001 -0.31336999 2.5223372e-44 0 -0 1 0
-0.033849999 0.35299 -0.31143001 1.9618179e-44 0 -0 1 0
-0.02406 0.35170999 -0.31077 0 0 -0 1 0
-0.01461 0.35117 -0.31075999 0 0 -0 1 0
-0.05968 0.34818 -0.54547 5.5101298e-40 0 -0 1 0
-0.37865999 0.34981999 -0.54277998 1.5612076e-39 0 -0 1 0
-0.36577001 0.34856999 -0.54193002 1.1938615e-39 0 -0 1 0
-0.12263 0.34823999 -0.54009998 2.0211166e-39 0 -0 1 0
0.12723 0.35023999 -0.54176003 3.3122282e-39 0 -0 1 0
0.14049999 0.34977001 -0.54215997 2.9430869e-39 0 -0 1 0
0.15324 0.34904 -0.54215997 2.5746603e-39 0 -0 1 0
0.16611999 0.34858999 -0.54255998 3.0349168e-39 0 -0 1 0
0.17942999 0.34810999 -0.54295999 3.0356385e-39 0 -0 1 0
-0.17272 0.35027 -0.53887999 2.0204005e-39 0 -0 1 0
-0.16023999 0.34957001 -0.53886998 2.0207607e-39 0 -0 1 0
-0.14786001 0.34913 -0.53928 2.204789e-39 0 -0 1 0
-0.13505 0.34867999 -0.53969002 2.204789e-39 0 -0 1 0
-0.039329998 0.34863001 -0.52547002 0 0 -0 1 0
-0.053970002 0.34962001 -0.46379 3.6734339e-40 0 -0 1 0
0.045030002 0.34946999 -0.45146999 0 0 -0 1 0
0.04332 0.34965 -0.41633001 0 0 -0 1 0
-0.05542 0.34825999 -0.4082 2.755233e-40 0 -0 1 0
0.041499998 0.34832001 -0.38190001 0 0 -0 1 0
0.040109999 0.34893 -0.35229999 0 0 -0 1 0
0.034370001 0.34823999 -0.33735001 0 0 -0 1 0
0.029060001 0.34922999 -0.32415 0 0 -0 1 0
-0.03909 0.34808001 -0.3195 1.1989538e-39 0 -0 1 0
-0.0051600002 0.35064 -0.31075999 0 0 -0 1 0
0.00465 0.35080999 -0.31141001 0 0 -0 1 0
-0.034049999 0.34753001 -0.54671001 0 0 -0 1 0
-0.021400001 0.34709001 -0.54711998 0 0 -0 1 0
-0.00875 0.3461 -0.5467 0 0 -0 1 0
0.00434 0.34562999 -0.54710001 0 0 -0 1 0
0.01705 0.34545001 -0.54793 1.8367099e-40 0 -0 1 0
-0.072140001 0.34781 -0.54382002 1.2856969e-39 0 -0 1 0
-0.047060002 0.34746 -0.54547 0 0 -0 1 0
-0.35249999 0.34729001 -0.54108 1.7448828e-39 0 -0 1 0
-0.33992001 0.34630999 -0.54065001 1.4693721e-39 0 -0 1 0
-0.32758999 0.34560999 -0.54064 2.2959056e-39 0 -0 1 0
-0.10978 0.34777999 -0.54051 2.1122402e-39 0 -0 1 0
-0.097319998 0.34735 -0.54092002 2.3895474e-39 0 -0 1 0
-0.08495 0.34744999 -0.54215997 2.1125934e-39 0 -0 1 0
0.19204 0.34711999 -0.54255003 3.0352727e-39 0 -0 1 0
0.20479999 0.34639999 -0.54254001 2.6661329e-39 0 -0 1 0
0.21780001 0.34538001 -0.54212999 2.3899033e-39 0 -0 1 0
0.023159999 0.34729999 -0.52871001 0 0 -0 1 0
0.039579999 0.3461 -0.46608999 0 0 -0 1 0
0.03644 0.34509999 -0.39370999 0 0 -0 1 0
-0.048670001 0.34538001 -0.38863999 0 0 -0 1 0
0.03517 0.34525001 -0.36320001 0 0 -0 1 0
-0.04676 0.34786999 -0.36111999 9.1908784e-40 0 -0 1 0
-0.040630002 0.34523001 -0.34402001 0 0 -0 1 0
-0.04465 0.34639001 -0.33126 2.8025969e-45 0 -0 1 0
0.018789999 0.34659001 -0.32113999 1.5414283e-44 0 -0 1 0
-0.029209999 0.34608001 -0.31816 1.1053106e-39 0 -0 1 0
-0.01973 0.34553999 -0.31816 3.0828566e-44 0 -0 1 0
-0.01026 0.34501001 -0.31815001 1.1210388e-44 0 -0 1 0
0.00911 0.34534001 -0.31948 1.2611686e-44 0 -0 1 0
0.02966 0.34419 -0.54708999 8.2651947e-40 0 -0 1 0
0.042569999 0.34237999 -0.54541999 1.5612132e-39 0 -0 1 0
-0.31463 0.34461999 -0.54021001 2.204789e-39 0 -0 1 0
-0.30230999 0.34391999 -0.54021001 1.5612104e-39 0 -0 1 0
-0.28997999 0.34322 -0.5402 1.9285552e-39 0 -0 1 0
0.23055001 0.34466001 -0.54211998 2.4821018e-39 0 -0 1 0
0.24329001 0.34393999 -0.54211003 2.4828178e-39 0 -0 1 0
0.25646001 0.34319001 -0.54211003 2.3899005e-39 0 -0 1 0
0.2694 0.34272999 -0.54250997 2.1129591e-39 0 -0 1 0
0.28237 0.34228 -0.54290998 2.2051519e-39 0 -0 1 0
-0.27706 0.34222001 -0.53977001 2.0203935e-39 0 -0 1 0
-0.026799999 0.34239 -0.51727003 0 0 -0 1 0
0.033909999 0.34220999 -0.47986001 0 0 -0 1 0
-0.04899 0.34428999 -0.47633001 2.3964053e-39 0 -0 1 0
-0.041979998 0.34211001 -0.45480001 0 0 -0 1 0
0.032570001 0.34228 -0.44148999 0 0 -0 1 0
-0.046519998 0.34342 -0.4373 2.7551209e-40 0 -0 1 0
0.037579998 0.34312001 -0.42523 0 0 -0 1 0
-0.050790001 0.34316 -0.41923001 0 0 -0 1 0
0.03019 0.34200999 -0.37436 0 0 -0 1 0
-0.04239 0.34380001 -0.37187999 1.2611686e-44 0 -0 1 0
-0.036400001 0.34220999 -0.35582 0 0 -0 1 0
0.029479999 0.34470001 -0.34744999 0 0 -0 1 0
0.023809999 0.34496999 -0.33361 0 0 -0 1 0
-0.00044999999 0.34481001 -0.31848001 4.2038954e-45 0 -0 1 0
0.054990001 0.34060001 -0.54376 2.2044359e-39 0 -0 1 0
0.29578 0.34178999 -0.54332 2.2984266e-39 0 -0 1 0
0.30878001 0.34132999 -0.54372001 1.6530543e-39 0 -0 1 0
0.32223001 0.34084001 -0.54412001 1.9299944e-39 0 -0 1 0
0.33502001 0.34011999 -0.54412001 1.4693862e-39 0 -0 1 0
0.34781 0.33939001 -0.54411 1.4693806e-39 0 -0 1 0
0.067809999 0.33906001 -0.54250002 3.2207514e-39 0 -0 1 0
-0.26475 0.34153 -0.53977001 1.8367211e-39 0 -0 1 0
-0.25242999 0.34083 -0.53975999 1.4693735e-39 0 -0 1 0
-0.23971 0.34011 -0.53975999 1.5612132e-39 0 -0 1 0
-0.2274 0.33941001 -0.53974998 1.9285608e-39 0 -0 1 0
-0.01462 0.34114999 -0.51644999 0 0 -0 1 0
0.01021 0.34112 -0.51848 0 0 -0 1 0
-0.0020699999 0.33989 -0.51563001 0 0 -0 1 0
0.027829999 0.33927 -0.49544001 0 0 -0 1 0
-0.044 0.33994001 -0.49064001 1.0113003e-39 0 -0 1 0
0.02679 0.33970001 -0.45671999 0 0 -0 1 0
0.03104 0.33987001 -0.40406001 0 0 -0 1 0
-0.044119999 0.34 -0.39927 1.2611686e-44 0 -0 1 0
-0.037969999 0.34022999 -0.38350999 1.4012985e-45 0 -0 1 0
-0.031720001 0.33954999 -0.36793 9.8090893e-45 0 -0 1 0
0.02414 0.34081 -0.35791001 0 0 -0 1 0
0.018850001 0.34117001 -0.34330001 0 0 -0 1 0
-0.030370001 0.34154001 -0.34088999 0 0 -0 1 0
-0.02062 0.33926001 -0.33916 0 0 -0 1 0
-0.01539 0.34051001 -0.32716 0 0 -0 1 0
0.36102 0.33864 -0.54409999 1.0102017e-39 0 -0 1 0
0.37353 0.33766001 -0.54369003 1.4693806e-39 0 -0 1 0
0.080300003 0.33809 -0.54207999 3.1285558e-39 0 -0 1 0
0.092929997 0.33763999 -0.54249001 3.4051469e-39 0 -0 1 0
0.10582 0.33664 -0.54206997 3.4044266e-39 0 -0 1 0
0.38543999 0.33614999 -0.54246002 1.0101989e-39 0 -0 1 0
-0.21453001 0.33842 -0.53931999 1.8367253e-39 0 -0 1 0
-0.20221999 0.33772001 -0.53931999 2.0203963e-39 0 -0 1 0
-0.18979 0.33675 -0.53889 2.0203949e-39 0 -0 1 0
-0.031720001 0.33640999 -0.48660001 0 0 -0 1 0
0.02121 0.33712 -0.47193 0 0 -0 1 0
-0.03672 0.33895999 -0.46998 0 0 -0 1 0
-0.030169999 0.33818001 -0.45050001 0 0 -0 1 0
0.0151 0.33649999 -0.45164999 0 0 -0 1 0
-0.034880001 0.33881 -0.4323 0 0 -0 1 0
0.02046 0.33750001 -0.43458 0 0 -0 1 0
-0.023879999 0.33605999 -0.4296 0 0 -0 1 0
0.025429999 0.33667001 -0.41654 0 0 -0 1 0
-0.039670002 0.33787 -0.41354999 0 0 -0 1 0
0.024769999 0.33895001 -0.38604 0 0 -0 1 0
-0.027249999 0.33702999 -0.38058999 0 0 -0 1 0
-0.02162 0.33733001 -0.36612001 0 0 -0 1 0
0.01912 0.33767 -0.36897999 0 0 -0 1 0
0.01384 0.33767 -0.35403001 0 0 -0 1 0
-0.02606 0.33892 -0.35299 0 0 -0 1 0
-0.01619 0.33735001 -0.35192001 0 0 -0 1 0
0.00382 0.33621001 -0.35191 0 0 -0 1 0
0.0088299997 0.33862999 -0.34018001 0 0 -0 1 0
-0.01095 0.33803001 -0.33846 0 0 -0 1 0
-0.00095000002 0.33746001 -0.33845001 0 0 -0 1 0
-0.01561 0.33344001 -0.54935002 7.3468397e-40 0 -0 1 0
-0.04056 0.33355001 -0.54724997 1.0101905e-39 0 -0 1 0
-0.028109999 0.33363 -0.54851002 1.102026e-39 0 -0 1 0
-0.053350002 0.33322001 -0.54557002 1.3775366e-39 0 -0 1 0
-0.37966001 0.33504 -0.54242998 1.9285454e-39 0 -0 1 0
-0.36747 0.33434999 -0.54242998 1.744887e-39 0 -0 1 0
-0.35503 0.33339 -0.54198998 1.928558e-39 0 -0 1 0
-0.11543 0.33331999 -0.54012001 2.1125934e-39 0 -0 1 0
0.11827 0.33566001 -0.54165 3.0356413e-39 0 -0 1 0
0.13080999 0.33495 -0.54163998 3.0356413e-39 0 -0 1 0
0.14388999 0.33447999 -0.54205 2.3902719e-39 0 -0 1 0
0.15644 0.33377001 -0.54203999 3.2200297e-39 0 -0 1 0
0.16912 0.33331999 -0.54245001 3.0356357e-39 0 -0 1 0
0.39743 0.33436999 -0.54080999 1.0101961e-39 0 -0 1 0
0.41014001 0.33364999 -0.54080999 1.4697421e-39 0 -0 1 0
-0.17697001 0.33576 -0.53846002 1.9285608e-39 0 -0 1 0
-0.16479 0.33533001 -0.53887999 2.1125934e-39 0 -0 1 0
-0.1525 0.33464 -0.53886998 2.1122402e-39 0 -0 1 0
-0.13989 0.33418 -0.53929001 2.2047862e-39 0 -0 1 0
-0.12767 0.33375001 -0.53969997 1.744887e-39 0 -0 1 0
0.0155 0.33487001 -0.48819 0 0 -0 1 0
-0.020020001 0.33405 -0.48418 0 0 -0 1 0
-0.02516 0.33511001 -0.46561 0 0 -0 1 0
0.00942 0.33401999 -0.46678001 0 0 -0 1 0
-0.0138 0.33300999 -0.46362001 0 0 -0 1 0
-0.01895 0.33546001 -0.44775999 0 0 -0 1 0
0.0037199999 0.33447 -0.44814 0 0 -0 1 0
-0.0078299996 0.33394 -0.44657999 0 0 -0 1 0
0.0091899997 0.33449 -0.42997 0 0 -0 1 0
-0.013 0.33392 -0.42767999 0 0 -0 1 0
-0.028519999 0.33381999 -0.40939 0 0 -0 1 0
0.01949 0.33480999 -0.39737001 0 0 -0 1 0
-0.033100002 0.33589 -0.39517 0 0 -0 1 0
0.01408 0.33566001 -0.38166001 0 0 -0 1 0
-0.01702 0.33515 -0.37911999 0 0 -0 1 0
-0.00685 0.33392999 -0.37838 0 0 -0 1 0
0.0037199999 0.33430001 -0.37946999 0 0 -0 1 0
0.0088200001 0.33559999 -0.36611 1.4012985e-45 0 -0 1 0
-0.01159 0.33576 -0.36504 0 0 -0 1 0
-0.00127 0.33485001 -0.36467999 0 0 -0 1 0
-0.00266 0.33296999 -0.54975998 8.2651947e-40 0 -0 1 0
0.0098400004 0.33173999 -0.54891002 1.0101905e-39 0 -0 1 0
0.02227 0.33024999 -0.54764003 1.4693735e-39 0 -0 1 0
-0.065650001 0.33285999 -0.54389 1.2856969e-39 0 -0 1 0
-0.34196001 0.33214 -0.54113001 1.744887e-39 0 -0 1 0
-0.32980999 0.33144999 -0.54111999 1.928558e-39 0 -0 1 0
-0.31742001 0.33048999 -0.54069 1.928558e-39 0 -0 1 0
-0.10276 0.33287001 -0.54053003 2.1125934e-39 0 -0 1 0
-0.09059 0.33296999 -0.54179001 1.9285608e-39 0 -0 1 0
-0.078330003 0.3328 -0.54263002 1.8367253e-39 0 -0 1 0
0.1821 0.33258 -0.54245001 2.4821018e-39 0 -0 1 0
0.19465999 0.33186999 -0.54244 2.94344e-39 0 -0 1 0
0.20705999 0.33090001 -0.54202002 2.4828206e-39 0 -0 1 0
0.22002999 0.33015999 -0.54201001 2.2980734e-39 0 -0 1 0
0.0036200001 0.33270001 -0.48416999 0 0 -0 1 0
-0.0084100002 0.33254001 -0.48295999 0 0 -0 1 0
-0.00208 0.33234999 -0.46360999 0 0 -0 1 0
-0.0018 0.33298001 -0.42728999 0 0 -0 1 0
0.01422 0.33202001 -0.41012001 0 0 -0 1 0
-0.017929999 0.33166999 -0.40748999 0 0 -0 1 0
-0.0074200002 0.33013999 -0.40634999 0 0 -0 1 0
0.0087799998 0.33193001 -0.39329001 0 0 -0 1 0
-0.0123 0.33249 -0.39256001 0 0 -0 1 0
-0.00164 0.33125001 -0.39181 3.6734759e-40 0 -0 1 0
0.034979999 0.32821 -0.54553002 1.9285664e-39 0 -0 1 0
-0.30487001 0.32978001 -0.54067999 1.5612104e-39 0 -0 1 0
-0.29271999 0.32909 -0.54067999 1.9285538e-39 0 -0 1 0
-0.27996999 0.32811001 -0.54023999 1.5612104e-39 0 -0 1 0
0.23258001 0.32945001 -0.54201001 2.2977035e-39 0 -0 1 0
0.24535 0.32846001 -0.54158998 2.4821018e-39 0 -0 1 0
0.2581 0.32800001 -0.54198998 2.3906194e-39 0 -0 1 0
0.27085999 0.32754999 -0.5424 2.1140353e-39 0 -0 1 0
0.28404999 0.32707 -0.54281002 1.6530571e-39 0 -0 1 0
-0.26763999 0.32714999 -0.53981 1.6530501e-39 0 -0 1 0
0.00346 0.32984 -0.40673 0 0 -0 1 0
0.047279999 0.32673001 -0.54426003 2.0203977e-39 0 -0 1 0
0.29685 0.32662001 -0.54321998 1.74525e-39 0 -0 1 0
0.30965999 0.32616001 -0.54363 1.3775437e-39 0 -0 1 0
0.32291999 0.32567999 -0.54404002 1.3775394e-39 0 -0 1 0
0.33550999 0.32495999 -0.54403001 1.3775423e-39 0 -0 1 0
0.34810999 0.32425001 -0.54403001 1.2857068e-39 0 -0 1 0
0.059519999 0.32523999 -0.54298002 2.6668588e-39 0 -0 1 0
0.07226 0.32426 -0.54255998 3.2200325e-39 0 -0 1 0
-0.25551 0.32646999 -0.53979999 1.9285636e-39 0 -0 1 0
-0.24298 0.32576001 -0.53979999 1.7448814e-39 0 -0 1 0
-0.23085 0.32506999 -0.53978997 1.928558e-39 0 -0 1 0
-0.21872 0.32438001 -0.53978002 1.6530515e-39 0 -0 1 0
0.36111999 0.32350999 -0.54402 1.3775479e-39 0 -0 1 0
0.37314999 0.32229 -0.54319 1.1938699e-39 0 -0 1 0
0.084559999 0.3233 -0.54212999 3.2200353e-39 0 -0 1 0
0.096919999 0.32260001 -0.54211998 3.4044238e-39 0 -0 1 0
0.1097 0.32187 -0.54211998 3.2203983e-39 0 -0 1 0
-0.20619 0.32367 -0.53978002 2.0203949e-39 0 -0 1 0
-0.19392 0.32271999 -0.53934002 2.0203977e-39 0 -0 1 0
-0.18167999 0.32177001 -0.53890997 2.0203949e-39 0 -0 1 0
-0.16915999 0.32106 -0.53890002 2.2044331e-39 0 -0 1 0
-0.034570001 0.31803 -0.54654002 1.4693735e-39 0 -0 1 0
-0.07147 0.31808001 -0.54313999 1.928558e-39 0 -0 1 0
-0.05937 0.31816 -0.54442 1.2856969e-39 0 -0 1 0
-0.047200002 0.31823999 -0.54569 1.0101905e-39 0 -0 1 0
-0.36897001 0.32067999 -0.54241002 1.928558e-39 0 -0 1 0
-0.3567 0.31974 -0.54197001 1.4693735e-39 0 -0 1 0
-0.34404999 0.31876999 -0.54153001 1.8367197e-39 0 -0 1 0
-0.12055 0.31907001 -0.54016 1.8367267e-39 0 -0 1 0
-0.10807 0.31862 -0.54058999 1.8367197e-39 0 -0 1 0
-0.096050002 0.31845 -0.54144001 2.2051519e-39 0 -0 1 0
-0.083930001 0.31801999 -0.54185998 1.8367225e-39 0 -0 1 0
0.12197 0.32091001 -0.54168999 3.2200297e-39 0 -0 1 0
0.13474 0.32019001 -0.54167998 2.3902719e-39 0 -0 1 0
0.1471 0.31948999 -0.54167998 3.5898941e-39 0 -0 1 0
0.15959001 0.31904 -0.54209 3.2200297e-39 0 -0 1 0
0.17237 0.31832001 -0.54209 3.1278369e-39 0 -0 1 0
0.38468999 0.32029 -0.54110003 1.1938699e-39 0 -0 1 0
0.39752001 0.31983 -0.54150999 1.0101905e-39 0 -0 1 0
-0.15705 0.32036999 -0.53890002 2.1125934e-39 0 -0 1 0
-0.14504001 0.31995001 -0.53931999 2.1122374e-39 0 -0 1 0
-0.13259999 0.3195 -0.53974003 2.0203949e-39 0 -0 1 0
-0.022299999 0.31784999 -0.54738998 1.2856969e-39 0 -0 1 0
-0.0099999998 0.31715 -0.54738998 1.1938615e-39 0 -0 1 0
0.00269 0.31617999 -0.54694998 1.4693735e-39 0 -0 1 0
-0.33182001 0.31783 -0.54109001 1.7448856e-39 0 -0 1 0
-0.31983 0.31715 -0.54108 1.1020288e-39 0 -0 1 0
-0.30723 0.31619 -0.54064 2.2040659e-39 0 -0 1 0
-0.29525 0.31551 -0.54064 2.2040603e-39 0 -0 1 0
0.18488 0.31786999 -0.54250002 3.0349196e-39 0 -0 1 0
0.1971 0.31692001 -0.54206997 2.7583285e-39 0 -0 1 0
0.20987999 0.31619 -0.54206997 2.94344e-39 0 -0 1 0
0.22225 0.31549001 -0.54206002 2.7594075e-39 0 -0 1 0
0.01492 0.31496999 -0.54609001 1.1938615e-39 0 -0 1 0
0.02713 0.31377 -0.54522997 1.8367183e-39 0 -0 1 0
0.039700001 0.31253999 -0.54437 1.9285636e-39 0 -0 1 0
0.28558001 0.31268999 -0.54329997 2.1129591e-39 0 -0 1 0
0.29821 0.31224 -0.54370999 2.0221928e-39 0 -0 1 0
-0.28308001 0.31457001 -0.5402 1.3775366e-39 0 -0 1 0
-0.27070999 0.31387001 -0.54018998 1.7448856e-39 0 -0 1 0
0.23443 0.31454 -0.54163003 2.1140353e-39 0 -0 1 0
0.2474 0.31406 -0.54205 2.667565e-39 0 -0 1 0
0.25975999 0.31336001 -0.54203999 2.4817458e-39 0 -0 1 0
0.27256 0.31316 -0.54288 2.1129563e-39 0 -0 1 0
-0.25856 0.31292999 -0.53974998 2.0204005e-39 0 -0 1 0
-0.24661 0.31224999 -0.53974998 1.5612104e-39 0 -0 1 0
0.051830001 0.31134 -0.54351002 2.482099e-39 0 -0 1 0
0.31101999 0.31151 -0.54370999 1.65306e-39 0 -0 1 0
0.32317999 0.31055999 -0.54328001 1.3775479e-39 0 -0 1 0
0.33583 0.31009999 -0.54369003 8.2652507e-40 0 -0 1 0
0.34865001 0.30937999 -0.54369003 7.3468397e-40 0 -0 1 0
-0.22245 0.31112999 -0.54017001 1.2856969e-39 0 -0 1 0
0.064319998 0.31011999 -0.54263997 2.6668559e-39 0 -0 1 0
0.076449998 0.30917999 -0.54220998 3.3122282e-39 0 -0 1 0
-0.23424999 0.31154999 -0.53974003 1.7448828e-39 0 -0 1 0
-0.20994 0.31016999 -0.53973001 1.9285608e-39 0 -0 1 0
-0.19785 0.30924001 -0.53929001 1.8367225e-39 0 -0 1 0
0.36076999 0.30842 -0.54325998 1.102033e-39 0 -0 1 0
-0.36974999 0.30645999 -0.54154998 1.928558e-39 0 -0 1 0
-0.35820001 0.30603999 -0.54198003 1.74488e-39 0 -0 1 0
0.088629998 0.30849001 -0.54220003 3.3122282e-39 0 -0 1 0
0.10122 0.30778 -0.54220003 3.1278369e-39 0 -0 1 0
0.11341 0.30709001 -0.54219002 3.2203955e-39 0 -0 1 0
0.12548 0.30614001 -0.54176003 3.5884563e-39 0 -0 1 0
0.37288001 0.30748001 -0.54282999 1.3775521e-39 0 -0 1 0
-0.1859 0.30856001 -0.53928 2.0203935e-39 0 -0 1 0
-0.17343999 0.30759999 -0.53884 1.74488e-39 0 -0 1 0
-0.16150001 0.30693001 -0.53884 1.8367225e-39 0 -0 1 0
-0.14966001 0.30651 -0.53926003 1.9285608e-39 0 -0 1 0
-0.053169999 0.30353001 -0.54356003 1.5612104e-39 0 -0 1 0
-0.040750001 0.30307001 -0.54399002 1.5612104e-39 0 -0 1 0
0.17543 0.30408001 -0.54302001 3.0356413e-39 0 -0 1 0
-0.34610999 0.30511999 -0.54153001 1.8367197e-39 0 -0 1 0
-0.33364999 0.30417001 -0.54109001 1.4693735e-39 0 -0 1 0
-0.32185 0.3035 -0.54108 1.1938615e-39 0 -0 1 0
-0.11357 0.30496001 -0.54010999 1.928558e-39 0 -0 1 0
-0.10134 0.30476001 -0.54097998 2.1133122e-39 0 -0 1 0
-0.08941 0.30432999 -0.54141003 1.5612104e-39 0 -0 1 0
-0.077509999 0.30416 -0.54227 1.7448828e-39 0 -0 1 0
-0.065140001 0.30371001 -0.54269999 1.4693749e-39 0 -0 1 0
0.13818 0.30568001 -0.54218 3.4044238e-39 0 -0 1 0
0.15049 0.30524001 -0.54259998 3.8661208e-39 0 -0 1 0
0.16269 0.30454999 -0.54259998 3.3122282e-39 0 -0 1 0
0.18748 0.30314001 -0.54258001 3.4047769e-39 0 -0 1 0
0.38449001 0.30577001 -0.54114002 1.102026e-39 0 -0 1 0
0.39684001 0.30507001 -0.54113001 1.1938699e-39 0 -0 1 0
-0.13732 0.30581 -0.53926003 1.928558e-39 0 -0 1 0
-0.12546 0.30537999 -0.53969002 1.8367197e-39 0 -0 1 0
-0.028720001 0.30289 -0.54484999 1.4693707e-39 0 -0 1 0
-0.016659999 0.30219999 -0.54483998 1.6530389e-39 0 -0 1 0
-0.0041899998 0.30149999 -0.54483998 1.8367197e-39 0 -0 1 0
0.0078699999 0.30081001 -0.54483002 1.3775366e-39 0 -0 1 0
-0.31004 0.30283001 -0.54108 1.7448814e-39 0 -0 1 0
-0.29762 0.30188 -0.54062998 1.6530445e-39 0 -0 1 0
-0.28580999 0.30120999 -0.54062003 1.8367239e-39 0 -0 1 0
-0.27342001 0.30026999 -0.54018003 1.6530473e-39 0 -0 1 0
0.19950999 0.30219999 -0.54215002 3.0356385e-39 0 -0 1 0
0.2121 0.30149001 -0.54214001 2.4817486e-39 0 -0 1 0
0.22409999 0.30055001 -0.54171002 2.4828206e-39 0 -0 1 0
0.23706999 0.30033001 -0.54255998 2.5750134e-39 0 -0 1 0
0.01991 0.29988 -0.54439002 1.7448856e-39 0 -0 1 0
0.032329999 0.29892999 -0.54395002 2.2040715e-39 0 -0 1 0
0.044289999 0.29775 -0.54307997 2.388467e-39 0 -0 1 0
0.26187 0.29943001 -0.54339999 2.3906222e-39 0 -0 1 0
0.27449 0.29872 -0.54339999 1.929644e-39 0 -0 1 0
0.28692999 0.29826999 -0.54382002 1.929644e-39 0 -0 1 0
0.29914999 0.29758 -0.54381001 1.2857082e-39 0 -0 1 0
-0.26163 0.29960001 -0.54017001 1.4693763e-39 0 -0 1 0
-0.24984001 0.29892999 -0.54017001 2.0203963e-39 0 -0 1 0
-0.23766001 0.29824001 -0.54016 1.5612104e-39 0 -0 1 0
-0.22586 0.29756999 -0.54014999 1.7448856e-39 0 -0 1 0
0.24925999 0.29964 -0.54255003 2.4828178e-39 0 -0 1 0
0.31178001 0.29686001 -0.54381001 1.6530543e-39 0 -0 1 0
0.324 0.29617 -0.5438 1.2857138e-39 0 -0 1 0
0.33596 0.29523 -0.54337001 1.2857082e-39 0 -0 1 0
0.34858 0.29451999 -0.54335999 1.1938699e-39 0 -0 1 0
0.056260001 0.29682001 -0.54263997 2.4817458e-39 0 -0 1 0
0.068619996 0.29587001 -0.54220003 2.6657798e-39 0 -0 1 0
0.080629997 0.29519001 -0.54219002 3.0356385e-39 0 -0 1 0
0.092639998 0.29451001 -0.54219002 3.4044238e-39 0 -0 1 0
-0.21392 0.29664999 -0.53970999 1.5612104e-39 0 -0 1 0
-0.20175 0.29596001 -0.53969997 1.8367225e-39 0 -0 1 0
-0.18996 0.29530001 -0.53969997 1.9285552e-39 0 -0 1 0
-0.17817999 0.29462999 -0.53969002 2.5735673e-39 0 -0 1 0
0.15375 0.29154 -0.54302001 3.3122254e-39 0 -0 1 0
0.36079001 0.29383001 -0.54335999 8.2652787e-40 0 -0 1 0
0.38562 0.29242 -0.54334003 1.0101933e-39 0 -0 1 0
-0.35975999 0.29313999 -0.54193002 1.7448786e-39 0 -0 1 0
-0.34783 0.29223001 -0.54148 1.1938615e-39 0 -0 1 0
-0.33554 0.2913 -0.54102999 1.7448828e-39 0 -0 1 0
-0.11857 0.29148999 -0.54009998 2.0211138e-39 0 -0 1 0
-0.10645 0.29104 -0.54053998 1.5612146e-39 0 -0 1 0
0.10505 0.29381001 -0.54218 3.3122254e-39 0 -0 1 0
0.11716 0.29337001 -0.54260999 3.5884563e-39 0 -0 1 0
0.12947001 0.29242 -0.54216999 3.4973397e-39 0 -0 1 0
0.1416 0.29198 -0.54259998 3.6810107e-39 0 -0 1 0
0.37253001 0.29238999 -0.54206002 1.0101989e-39 0 -0 1 0
-0.16601001 0.29394001 -0.53968 2.0203977e-39 0 -0 1 0
-0.15412 0.29302001 -0.53924 2.2040687e-39 0 -0 1 0
-0.14234 0.29234999 -0.53922999 1.6530417e-39 0 -0 1 0
-0.13027 0.29190999 -0.53966999 1.928558e-39 0 -0 1 0
-0.034949999 0.28843999 -0.54315001 1.3775324e-39 0 -0 1 0
0.16618 0.29084 -0.54302001 3.1278341e-39 0 -0 1 0
0.17821001 0.29016 -0.54301 3.5884563e-39 0 -0 1 0
0.19024 0.28948 -0.54301 3.128553e-39 0 -0 1 0
-0.32365 0.29039001 -0.54057997 1.5612104e-39 0 -0 1 0
-0.31202 0.28973001 -0.54057002 1.5612076e-39 0 -0 1 0
-0.29977 0.2888 -0.54012001 1.3775394e-39 0 -0 1 0
-0.28814 0.28814 -0.54010999 1.4693763e-39 0 -0 1 0
-0.09471 0.29062 -0.54097003 1.4693777e-39 0 -0 1 0
-0.082999997 0.29043999 -0.54184997 1.5612132e-39 0 -0 1 0
-0.070819996 0.28999001 -0.54228002 1.7448828e-39 0 -0 1 0
-0.058990002 0.28931999 -0.54228002 1.5612076e-39 0 -0 1 0
-0.047169998 0.28889 -0.54271001 1.3775338e-39 0 -0 1 0
0.2025 0.28852999 -0.54256999 2.944519e-39 0 -0 1 0
-0.023089999 0.28777 -0.54313999 1.8367141e-39 0 -0 1 0
-0.01124 0.28709999 -0.54312998 1.2856969e-39 0 -0 1 0
0.00104 0.28689 -0.54400998 1.9285552e-39 0 -0 1 0
0.01289 0.28597 -0.54356003 1.8367211e-39 0 -0 1 0
0.02476 0.28529999 -0.54356003 1.7448814e-39 0 -0 1 0
0.26343 0.28557 -0.54341 2.2991496e-39 0 -0 1 0
0.27609 0.28511 -0.54382998 2.2984238e-39 0 -0 1 0
0.21452001 0.28784999 -0.54255998 2.8523234e-39 0 -0 1 0
0.22654 0.28716999 -0.54255998 2.7594075e-39 0 -0 1 0
0.23896 0.28646001 -0.54255003 2.3902691e-39 0 -0 1 0
0.25119001 0.28602001 -0.54298002 1.9296468e-39 0 -0 1 0
-0.27631 0.28723001 -0.53965998 1.9285608e-39 0 -0 1 0
-0.26431 0.28654999 -0.53965002 1.8367197e-39 0 -0 1 0
-0.25268999 0.2859 -0.53965002 1.4693791e-39 0 -0 1 0
-0.24107 0.28523999 -0.53964001 2.0203949e-39 0 -0 1 0
0.036970001 0.28437001 -0.54311001 2.1133122e-39 0 -0 1 0
0.048829999 0.28369001 -0.54311001 2.4810185e-39 0 -0 1 0
0.28814 0.28442001 -0.54382998 1.3775451e-39 0 -0 1 0
0.30035001 0.28347999 -0.54338998 2.2984266e-39 0 -0 1 0
0.31237999 0.28279999 -0.54338002 1.5619405e-39 0 -0 1 0
0.32442001 0.28211999 -0.54338002 1.1938741e-39 0 -0 1 0
-0.19396999 0.28279999 -0.54007 2.0203935e-39 0 -0 1 0
0.061020002 0.28275999 -0.54266 2.665414e-39 0 -0 1 0
0.072870001 0.28209001 -0.54264998 2.6657798e-39 0 -0 1 0
-0.22906999 0.28455999 -0.53964001 1.7448884e-39 0 -0 1 0
-0.21744999 0.28389999 -0.53963 2.0203949e-39 0 -0 1 0
-0.20545 0.28321999 -0.53961998 1.7448786e-39 0 -0 1 0
0.12075 0.27961999 -0.54307002 3.3122254e-39 0 -0 1 0
0.13312 0.27915999 -0.54350001 3.4044266e-39 0 -0 1 0
-0.36059001 0.27998999 -0.54075998 1.4693806e-39 0 -0 1 0
-0.34884 0.27908999 -0.54030001 1.4693763e-39 0 -0 1 0
-0.17033 0.28145999 -0.54005003 2.2047862e-39 0 -0 1 0
0.084710002 0.28141999 -0.54264998 2.5750162e-39 0 -0 1 0
0.096950002 0.28072 -0.54263997 2.4824647e-39 0 -0 1 0
0.1088 0.28005001 -0.54263997 3.3122254e-39 0 -0 1 0
0.33658999 0.28117999 -0.54294002 1.1938727e-39 0 -0 1 0
0.34862 0.28049999 -0.54293001 1.3775479e-39 0 -0 1 0
0.36065 0.27981001 -0.54291999 1.0102017e-39 0 -0 1 0
-0.18221 0.28189999 -0.53961003 1.7448828e-39 0 -0 1 0
-0.15859 0.28055999 -0.53960001 1.5612104e-39 0 -0 1 0
-0.14697 0.27990001 -0.53960001 1.8367225e-39 0 -0 1 0
-0.13496999 0.27922001 -0.53959 1.6530445e-39 0 -0 1 0
0.14498 0.27847999 -0.54350001 3.4055e-39 0 -0 1 0
0.15697999 0.27805001 -0.54392999 3.1278341e-39 0 -0 1 0
0.16925 0.27735001 -0.54392999 3.5884563e-39 0 -0 1 0
0.18097 0.27643999 -0.54347998 3.1278369e-39 0 -0 1 0
0.38541001 0.27866 -0.54334998 6.4285968e-40 0 -0 1 0
-0.33737001 0.27844 -0.54029 1.74488e-39 0 -0 1 0
-0.32552001 0.27777001 -0.54029 1.4693707e-39 0 -0 1 0
-0.11181 0.27814001 -0.54003 1.3775465e-39 0 -0 1 0
-0.099799998 0.27746001 -0.54001999 1.1020288e-39 0 -0 1 0
-0.088229999 0.27704 -0.54045999 1.5612104e-39 0 -0 1 0
-0.076640002 0.27662 -0.54089999 1.4693707e-39 0 -0 1 0
-0.06464 0.27616999 -0.54133999 1.5612048e-39 0 -0 1 0
0.37248999 0.27864 -0.54205 1.2857082e-39 0 -0 1 0
-0.31380999 0.27688 -0.53983003 1.5612132e-39 0 -0 1 0
-0.30235001 0.27623001 -0.53982002 1.4693791e-39 0 -0 1 0
-0.12335 0.27856001 -0.53957999 2.1122374e-39 0 -0 1 0
0.19283 0.27577001 -0.54347998 3.0356413e-39 0 -0 1 0
0.20509 0.27508 -0.54347003 3.2200297e-39 0 -0 1 0
0.21696 0.2744 -0.54346001 2.7594103e-39 0 -0 1 0
0.22903 0.27348 -0.54302001 2.7601278e-39 0 -0 1 0
0.24108 0.27303001 -0.54345 2.4828206e-39 0 -0 1 0
-0.052990001 0.27551001 -0.54133999 2.0203921e-39 0 -0 1 0
-0.04095 0.27483001 -0.54132998 1.5612076e-39 0 -0 1 0
-0.02929 0.27417001 -0.54132998 1.3775324e-39 0 -0 1 0
-0.01764 0.27373999 -0.54176998 1.4693707e-39 0 -0 1 0
-0.0055800001 0.27329999 -0.54220998 2.0203893e-39 0 -0 1 0
-0.29049999 0.27555999 -0.53982002 1.1938615e-39 0 -0 1 0
-0.27882999 0.27465999 -0.53935999 1.7448898e-39 0 -0 1 0
-0.26679999 0.27375001 -0.53890002 1.4693791e-39 0 -0 1 0
-0.25555 0.27333999 -0.53934997 1.9285636e-39 0 -0 1 0
0.25314999 0.27259001 -0.54389 2.6675748e-39 0 -0 1 0
0.26541999 0.2719 -0.54387999 2.2991496e-39 0 -0 1 0
0.2773 0.27122 -0.54387999 1.285711e-39 0 -0 1 0
0.28917 0.27055001 -0.54386997 1.8378141e-39 0 -0 1 0
0.0060899998 0.27263001 -0.54220003 1.7448758e-39 0 -0 1 0
0.01777 0.27197 -0.54220003 1.3775366e-39 0 -0 1 0
0.029859999 0.27151999 -0.54263997 1.3775394e-39 0 -0 1 0
0.041499998 0.27063 -0.54219002 2.2051547e-39 0 -0 1 0
-0.24409001 0.27270001 -0.53934002 1.9285608e-39 0 -0 1 0
-0.23243 0.27226001 -0.53978997 1.9285608e-39 0 -0 1 0
-0.22081 0.27136999 -0.53933001 1.8367253e-39 0 -0 1 0
-0.20951 0.27096 -0.53978002 2.2040631e-39 0 -0 1 0
-0.19752 0.27004999 -0.53931999 2.0203893e-39 0 -0 1 0
0.30144 0.26984999 -0.54386002 2.0225613e-39 0 -0 1 0
0.31305999 0.26894999 -0.54342002 2.0218425e-39 0 -0 1 0
0.32492 0.26828 -0.54341 1.3775507e-39 0 -0 1 0
0.33717999 0.26758999 -0.54341 1.1938741e-39 0 -0 1 0
0.053169999 0.26997 -0.54218 2.3895474e-39 0 -0 1 0
0.065300003 0.26951 -0.54262 2.6654112e-39 0 -0 1 0
0.076909997 0.26862001 -0.54216999 2.4824647e-39 0 -0 1 0
0.088579997 0.26796001 -0.54215997 2.6657798e-39 0 -0 1 0
0.10073 0.26750001 -0.54259998 2.8505269e-39 0 -0 1 0
-0.18619999 0.26964 -0.53977001 1.9285552e-39 0 -0 1 0
-0.17474 0.26899001 -0.53975999 1.8367225e-39 0 -0 1 0
-0.1629 0.26831999 -0.53974998 1.377538e-39 0 -0 1 0
-0.15143 0.26767001 -0.53974998 1.8367197e-39 0 -0 1 0
-0.13997 0.26701999 -0.53974003 1.8367225e-39 0 -0 1 0
0.12459 0.26639 -0.54303998 3.4047797e-39 0 -0 1 0
0.1364 0.26594999 -0.54347998 3.2207486e-39 0 -0 1 0
0.1481 0.26528999 -0.54347003 3.3122254e-39 0 -0 1 0
0.16033 0.26482999 -0.54391003 2.9434428e-39 0 -0 1 0
0.17204 0.26416999 -0.54391003 3.128553e-39 0 -0 1 0
0.37347001 0.26576999 -0.54382998 1.1938699e-39 0 -0 1 0
-0.35047999 0.26664001 -0.54049999 1.3775324e-39 0 -0 1 0
-0.3389 0.26576999 -0.54004002 1.561216e-39 0 -0 1 0
-0.32721999 0.2651 -0.54003 1.6530501e-39 0 -0 1 0
-0.31591001 0.26446 -0.54001999 1.3775366e-39 0 -0 1 0
-0.11675 0.26593 -0.54018998 1.5612146e-39 0 -0 1 0
-0.10489 0.26526001 -0.54018003 1.5612104e-39 0 -0 1 0
-0.093419999 0.26460999 -0.54017001 1.7448856e-39 0 -0 1 0
-0.082000002 0.26418999 -0.54062003 1.6530515e-39 0 -0 1 0
0.11241 0.26684001 -0.54259998 3.2203857e-39 0 -0 1 0
0.34876001 0.26668999 -0.54295999 1.1938643e-39 0 -0 1 0
0.36043 0.26554 -0.54206997 9.1836197e-40 0 -0 1 0
-0.12813 0.26635 -0.53974003 1.4693749e-39 0 -0 1 0
0.18375 0.26350001 -0.54390001 3.3122282e-39 0 -0 1 0
0.19585 0.26282001 -0.54390001 3.128553e-39 0 -0 1 0
0.20738 0.26192999 -0.54345 3.128553e-39 0 -0 1 0
0.21908 0.26126 -0.54343998 2.8519703e-39 0 -0 1 0
-0.30461001 0.26381999 -0.54001999 1.3775394e-39 0 -0 1 0
-0.070139997 0.26352 -0.54062003 1.9285608e-39 0 -0 1 0
-0.05869 0.2631 -0.54105997 1.74488e-39 0 -0 1 0
-0.047200002 0.26245001 -0.54105997 1.74488e-39 0 -0 1 0
-0.035349999 0.26199999 -0.54149997 1.2856969e-39 0 -0 1 0
-0.02385 0.26135001 -0.54149997 1.5612132e-39 0 -0 1 0
-0.29269999 0.26293001 -0.53955001 1.2857026e-39 0 -0 1 0
-0.28119001 0.26205 -0.53908998 1.2856997e-39 0 -0 1 0
-0.26989999 0.26141 -0.53908002 1.2856997e-39 0 -0 1 0
0.23117 0.26058 -0.54342997 2.8523234e-39 0 -0 1 0
0.24307001 0.26014 -0.54386997 2.5753792e-39 0 -0 1 0
0.25477999 0.25948 -0.54386997 2.2991524e-39 0 -0 1 0
0.26688001 0.25878999 -0.54386002 2.3002244e-39 0 -0 1 0
0.27858999 0.25813001 -0.54386002 2.0222054e-39 0 -0 1 0
-0.01235 0.26069999 -0.54149002 1.7448814e-39 0 -0 1 0
-0.00047 0.26001999 -0.54149002 1.7448814e-39 0 -0 1 0
0.01105 0.25960001 -0.54193997 1.7448786e-39 0 -0 1 0
0.02256 0.25895 -0.54193002 1.7448786e-39 0 -0 1 0
0.034449998 0.25827 -0.54192001 2.4810157e-39 0 -0 1 0
-0.25824001 0.26075 -0.53908002 1.5612146e-39 0 -0 1 0
-0.24695 0.26010999 -0.53907001 1.8370827e-39 0 -0 1 0
-0.23583999 0.2597 -0.53952998 2.1125906e-39 0 -0 1 0
-0.22417 0.25904 -0.53952003 1.4693763e-39 0 -0 1 0
-0.21287 0.25839999 -0.53952003 2.0203949e-39 0 -0 1 0
0.29045001 0.25722 -0.54339999 1.5615846e-39 0 -0 1 0
0.30215001 0.25655001 -0.54339999 1.285711e-39 0 -0 1 0
0.31384999 0.25589001 -0.54338998 1.6530656e-39 0 -0 1 0
0.32594001 0.25521001 -0.54338998 1.4697421e-39 0 -0 1 0
-0.16717 0.25624999 -0.54040998 1.5612048e-39 0 -0 1 0
-0.15584999 0.25560999 -0.54040998 1.74488e-39 0 -0 1 0
0.045960002 0.25762001 -0.54192001 2.0204005e-39 0 -0 1 0
0.057909999 0.25716999 -0.54237002 2.0204005e-39 0 -0 1 0
0.069420002 0.25652 -0.54236001 2.4817458e-39 0 -0 1 0
0.080859996 0.25564 -0.54189998 2.2973532e-39 0 -0 1 0
0.092840001 0.25519001 -0.54234999 2.3902691e-39 0 -0 1 0
-0.20134 0.25797001 -0.53996998 1.9285552e-39 0 -0 1 0
-0.19004001 0.25733 -0.53996003 1.8367197e-39 0 -0 1 0
-0.17873 0.25668001 -0.53996003 1.6530445e-39 0 -0 1 0
0.12812001 0.25387999 -0.54369003 3.1278341e-39 0 -0 1 0
0.13966 0.25321999 -0.54368001 3.3133002e-39 0 -0 1 0
0.15121 0.25257 -0.54368001 3.2200297e-39 0 -0 1 0
0.16328 0.25211 -0.54413003 2.9445218e-39 0 -0 1 0
-0.14454 0.25497001 -0.54040003 2.0204033e-39 0 -0 1 0
-0.13285001 0.2543 -0.54039001 1.4693763e-39 0 -0 1 0
-0.11022 0.25301999 -0.54038 1.5612174e-39 0 -0 1 0
-0.098520003 0.25235999 -0.54038 1.9285636e-39 0 -0 1 0
0.10445 0.25476 -0.54280001 3.0356385e-39 0 -0 1 0
0.11598 0.25411001 -0.54279 2.9434428e-39 0 -0 1 0
0.33735999 0.25432 -0.54293001 1.0102045e-39 0 -0 1 0
0.34904999 0.25365999 -0.54293001 1.1938713e-39 0 -0 1 0
0.36024001 0.25231999 -0.54158002 6.4284987e-40 0 -0 1 0
0.37281999 0.25231001 -0.54291999 1.2857138e-39 0 -0 1 0
-0.35111001 0.25400999 -0.53884 1.2856969e-39 0 -0 1 0
-0.34024 0.25360999 -0.53930002 1.2857026e-39 0 -0 1 0
-0.32936001 0.25319999 -0.53975999 1.4693749e-39 0 -0 1 0
-0.31783 0.25255001 -0.53974998 1.2856997e-39 0 -0 1 0
-0.12145 0.25343999 -0.53992999 1.8367197e-39 0 -0 1 0
0.17483 0.25145999 -0.54412001 3.2211045e-39 0 -0 1 0
0.18639 0.25080001 -0.54412001 2.9445218e-39 0 -0 1 0
0.19832 0.25012001 -0.54411 2.9445218e-39 0 -0 1 0
0.20987999 0.24947 -0.54409999 2.8530451e-39 0 -0 1 0
-0.08726 0.25194001 -0.54083002 1.5612146e-39 0 -0 1 0
-0.075939998 0.25130001 -0.54083002 1.5612118e-39 0 -0 1 0
-0.064280003 0.25086001 -0.54127997 1.5612076e-39 0 -0 1 0
-0.05294 0.25022 -0.54127997 1.928558e-39 0 -0 1 0
-0.041230001 0.24955 -0.54127002 1.9285608e-39 0 -0 1 0
-0.02991 0.24913 -0.54171997 1.7448828e-39 0 -0 1 0
-0.30667999 0.25192001 -0.53974998 1.4693735e-39 0 -0 1 0
-0.29530001 0.25106001 -0.53928 1.4693679e-39 0 -0 1 0
-0.28378999 0.25040999 -0.53926998 1.74488e-39 0 -0 1 0
-0.27265 0.24977 -0.53926998 1.7448884e-39 0 -0 1 0
-0.26113999 0.24912 -0.53926003 1.9285608e-39 0 -0 1 0
0.22163001 0.24857 -0.54364002 2.9434428e-39 0 -0 1 0
0.23337001 0.24814001 -0.54408997 3.0356357e-39 0 -0 1 0
0.24492 0.24748001 -0.54408997 2.5753792e-39 0 -0 1 0
0.25663999 0.24659 -0.54363 2.2076757e-39 0 -0 1 0
-0.20536999 0.24639 -0.54016 2.2040715e-39 0 -0 1 0
-0.01857 0.24849001 -0.54171997 1.7448758e-39 0 -0 1 0
-0.0068399999 0.24783 -0.54171002 1.6530389e-39 0 -0 1 0
0.0044999998 0.24718 -0.54171002 1.6530389e-39 0 -0 1 0
0.01584 0.24654 -0.54170001 1.5612104e-39 0 -0 1 0
0.0276 0.24608999 -0.54215002 1.8367225e-39 0 -0 1 0
-0.24999 0.24849001 -0.53925002 1.4693763e-39 0 -0 1 0
-0.23904 0.24808 -0.53970999 1.8367169e-39 0 -0 1 0
-0.22751001 0.24743 -0.53970999 1.4693735e-39 0 -0 1 0
-0.21636 0.24680001 -0.53969997 1.8367197e-39 0 -0 1 0
0.084899999 0.24329001 -0.54304999 2.7579754e-39 0 -0 1 0
0.26819 0.24593 -0.54361999 2.1147612e-39 0 -0 1 0
0.27972999 0.24528 -0.54361999 1.5619531e-39 0 -0 1 0
0.29166001 0.2446 -0.54360998 1.653783e-39 0 -0 1 0
0.30294999 0.24374001 -0.54315001 1.4693862e-39 0 -0 1 0
0.31448999 0.24308001 -0.54315001 1.0102045e-39 0 -0 1 0
-0.19383 0.24574 -0.54016 1.7448884e-39 0 -0 1 0
-0.18280999 0.24533001 -0.54062003 1.9285608e-39 0 -0 1 0
-0.17163999 0.24469 -0.54061002 2.0203893e-39 0 -0 1 0
-0.1601 0.24404 -0.54061002 1.7448842e-39 0 -0 1 0
-0.14893 0.24339999 -0.5406 1.7448828e-39 0 -0 1 0
0.03895 0.24545 -0.54215002 1.7448856e-39 0 -0 1 0
0.050299998 0.24481 -0.54214001 2.1122374e-39 0 -0 1 0
0.062029999 0.24414 -0.54214001 2.2051547e-39 0 -0 1 0
0.073459998 0.24372 -0.54259002 2.2051547e-39 0 -0 1 0
0.096649997 0.24262001 -0.54303998 2.5746603e-39 0 -0 1 0
0.10812 0.24219 -0.54348999 2.4824647e-39 0 -0 1 0
0.11999 0.24174 -0.54395002 2.94344e-39 0 -0 1 0
0.13138001 0.2411 -0.54394001 2.7590544e-39 0 -0 1 0
0.14277001 0.24044999 -0.54394001 2.7594103e-39 0 -0 1 0
0.32641 0.24241 -0.54313999 1.0102059e-39 0 -0 1 0
0.33794001 0.24175 -0.54313999 1.2857138e-39 0 -0 1 0
0.36199999 0.24084 -0.54403001 1.0101989e-39 0 -0 1 0
-0.29806 0.24006 -0.5402 1.2856969e-39 0 -0 1 0
-0.13776 0.24277 -0.5406 1.9285608e-39 0 -0 1 0
-0.12622 0.24212 -0.54058999 1.5612132e-39 0 -0 1 0
-0.11505 0.24147999 -0.54058999 1.3775394e-39 0 -0 1 0
-0.10358 0.24105 -0.54105002 1.4693777e-39 0 -0 1 0
-0.092469998 0.24063 -0.54150999 1.7448828e-39 0 -0 1 0
0.34898999 0.24044 -0.54176998 1.2857124e-39 0 -0 1 0
-0.34193999 0.24213 -0.53928 1.102026e-39 0 -0 1 0
-0.33120999 0.24173 -0.53974998 7.3468397e-40 0 -0 1 0
-0.31984001 0.24108 -0.53974003 1.1938615e-39 0 -0 1 0
-0.30882999 0.24045999 -0.53974003 1.377538e-39 0 -0 1 0
0.15467 0.23999999 -0.54439002 2.9445218e-39 0 -0 1 0
0.16607 0.23935001 -0.54438001 3.2200297e-39 0 -0 1 0
0.17747 0.2387 -0.54438001 2.9445218e-39 0 -0 1 0
0.18923999 0.23804 -0.54437 2.7597746e-39 0 -0 1 0
0.20082 0.2376 -0.54483002 2.3920669e-39 0 -0 1 0
-0.081220001 0.23977999 -0.54102999 1.7448856e-39 0 -0 1 0
-0.069669999 0.23913001 -0.54102999 1.9285608e-39 0 -0 1 0
-0.058529999 0.23871 -0.54149002 1.5612104e-39 0 -0 1 0
-0.047339998 0.23807 -0.54148 1.74488e-39 0 -0 1 0
-0.035780001 0.23741999 -0.54148 1.5612104e-39 0 -0 1 0
-0.28646001 0.23919 -0.53973001 1.1938615e-39 0 -0 1 0
-0.27524 0.23835 -0.53925002 1.3775437e-39 0 -0 1 0
-0.26445001 0.23794 -0.53972 1.3775409e-39 0 -0 1 0
-0.25308001 0.23729999 -0.53970999 1.5612132e-39 0 -0 1 0
0.21204001 0.23673999 -0.54435998 2.9445246e-39 0 -0 1 0
0.22382 0.23608001 -0.54435998 2.575382e-39 0 -0 1 0
0.23522 0.23543 -0.54435003 2.6675748e-39 0 -0 1 0
0.24661 0.23478 -0.54435003 2.2069568e-39 0 -0 1 0
-0.19746999 0.23435 -0.54014999 1.9285664e-39 0 -0 1 0
-0.024599999 0.237 -0.54193997 1.3775366e-39 0 -0 1 0
-0.01341 0.23636 -0.54193002 1.1938615e-39 0 -0 1 0
-0.00184 0.23571 -0.54193002 1.4693707e-39 0 -0 1 0
0.0093599996 0.23507001 -0.54192001 1.8367197e-39 0 -0 1 0
0.02056 0.23444 -0.54192001 2.0203935e-39 0 -0 1 0
-0.24207 0.23667 -0.53969997 1.5612104e-39 0 -0 1 0
-0.23107 0.23604999 -0.53969997 1.6530487e-39 0 -0 1 0
-0.21969999 0.23541 -0.53969002 1.8367197e-39 0 -0 1 0
-0.20869 0.23478 -0.53969002 1.5612034e-39 0 -0 1 0
0.089110002 0.23119999 -0.54328001 2.7583285e-39 0 -0 1 0
0.25817001 0.23390999 -0.54387999 2.1147584e-39 0 -0 1 0
0.26978999 0.23346999 -0.54433 1.7466975e-39 0 -0 1 0
0.28156999 0.23280001 -0.54433 1.6537858e-39 0 -0 1 0
0.29271999 0.23195 -0.54386002 1.5615874e-39 0 -0 1 0
0.30385 0.23109999 -0.54339999 1.5619405e-39 0 -0 1 0
-0.18646 0.23373 -0.54014999 1.4693763e-39 0 -0 1 0
-0.17557999 0.23332 -0.54062003 2.0203935e-39 0 -0 1 0
-0.16407 0.23246001 -0.54013997 1.6530445e-39 0 -0 1 0
-0.15316001 0.23205 -0.5406 1.4693763e-39 0 -0 1 0
-0.14214 0.23142 -0.5406 1.7448828e-39 0 -0 1 0
0.032129999 0.23378 -0.54190999 2.0203949e-39 0 -0 1 0
0.043370001 0.23336001 -0.54237002 2.1125934e-39 0 -0 1 0
0.055009998 0.23292001 -0.54282999 1.7448954e-39 0 -0 1 0
0.066229999 0.23228 -0.54282999 1.8367323e-39 0 -0 1 0
0.077440001 0.23164 -0.54281998 2.7583285e-39 0 -0 1 0
0.10043 0.23077001 -0.54373997 2.4828206e-39 0 -0 1 0
0.11167 0.23013 -0.54373002 3.0359916e-39 0 -0 1 0
0.12339 0.22968 -0.54418999 2.2980734e-39 0 -0 1 0
0.13474999 0.22925 -0.54465002 2.5753792e-39 0 -0 1 0
0.14601 0.22860999 -0.54465002 2.5750162e-39 0 -0 1 0
0.31586999 0.23063999 -0.54385 1.0102031e-39 0 -0 1 0
0.32699001 0.22978 -0.54338998 1.1938741e-39 0 -0 1 0
0.33864999 0.22934 -0.54383999 1.1938769e-39 0 -0 1 0
0.36241001 0.22844 -0.54474998 1.285711e-39 0 -0 1 0
-0.30022001 0.22854 -0.54025 1.102026e-39 0 -0 1 0
-0.13085 0.23098999 -0.54106998 1.5612104e-39 0 -0 1 0
-0.11981 0.23037 -0.54105997 1.4693735e-39 0 -0 1 0
-0.10878 0.22973999 -0.54105997 1.4693735e-39 0 -0 1 0
-0.097379997 0.22909001 -0.54105002 2.0203921e-39 0 -0 1 0
-0.086350001 0.22847 -0.54104 1.9285608e-39 0 -0 1 0
0.34983 0.22826999 -0.54291999 1.1020428e-39 0 -0 1 0
-0.34294999 0.23016 -0.53834999 1.4693735e-39 0 -0 1 0
-0.33239001 0.22976001 -0.53882998 1.377538e-39 0 -0 1 0
-0.32179999 0.22936 -0.53930002 1.0101905e-39 0 -0 1 0
-0.31084001 0.22894 -0.53977001 1.3775338e-39 0 -0 1 0
0.15763 0.22796001 -0.54464 2.7590544e-39 0 -0 1 0
0.16888 0.22732 -0.54464 2.850171e-39 0 -0 1 0
0.18013 0.22668 -0.54462999 2.7601306e-39 0 -0 1 0
0.19193 0.22623 -0.54509002 3.1278341e-39 0 -0 1 0
0.20319 0.22559001 -0.54509002 2.7608494e-39 0 -0 1 0
-0.27812999 0.22729 -0.54023999 1.2856969e-39 0 -0 1 0
-0.26725999 0.22667 -0.54022998 1.4693707e-39 0 -0 1 0
-0.25602999 0.22603001 -0.54022998 1.4693763e-39 0 -0 1 0
-0.24516 0.22542 -0.54022002 1.8370827e-39 0 -0 1 0
-0.23447999 0.22500999 -0.54069 1.3775338e-39 0 -0 1 0
-0.075319998 0.22784001 -0.54104 1.8367225e-39 0 -0 1 0
-0.063960001 0.22741 -0.54150999 1.8367267e-39 0 -0 1 0
-0.052919999 0.22678 -0.54149997 1.7448856e-39 0 -0 1 0
-0.041510001 0.22612999 -0.54149002 2.0211166e-39 0 -0 1 0
-0.030470001 0.22551 -0.54149002 1.9285608e-39 0 -0 1 0
0.21464001 0.22472 -0.54461998 2.2069568e-39 0 -0 1 0
0.22589 0.22409 -0.54461002 2.6675748e-39 0 -0 1 0
0.23714 0.22345001 -0.54460001 1.8378141e-39 0 -0 1 0
0.24855 0.22259 -0.54413003 2.2076757e-39 0 -0 1 0
-0.22324 0.22438 -0.54069 1.5612104e-39 0 -0 1 0
-0.2122 0.22355001 -0.5402 1.7448828e-39 0 -0 1 0
-0.20133001 0.22293 -0.5402 1.6530515e-39 0 -0 1 0
-0.19024999 0.2225 -0.54066998 2.0203963e-39 0 -0 1 0
-0.01943 0.22487999 -0.54148 1.7448786e-39 0 -0 1 0
-0.00801 0.22443999 -0.54194999 1.3775338e-39 0 -0 1 0
0.0030400001 0.22382 -0.54193997 1.5612132e-39 0 -0 1 0
0.01409 0.22318999 -0.54193997 1.8367225e-39 0 -0 1 0
0.02551 0.22254001 -0.54193002 1.7448856e-39 0 -0 1 0
0.081370004 0.22 -0.54332 1.7448898e-39 0 -0 1 0
0.092820004 0.21935 -0.54332 2.2980706e-39 0 -0 1 0
0.25979 0.22194999 -0.54413003 2.4831836e-39 0 -0 1 0
0.27127001 0.22150999 -0.54459 1.8392491e-39 0 -0 1 0
0.28264999 0.22065 -0.54412001 1.9310902e-39 0 -0 1 0
0.29363999 0.21980999 -0.54364997 1.9303657e-39 0 -0 1 0
0.30487999 0.21918 -0.54364002 1.4693862e-39 0 -0 1 0
-0.17923 0.22168 -0.54018998 1.9285552e-39 0 -0 1 0
-0.16848999 0.22126999 -0.54066002 2.1125934e-39 0 -0 1 0
-0.15726 0.22063001 -0.54066002 1.928558e-39 0 -0 1 0
-0.14638001 0.22002 -0.54065001 1.8367197e-39 0 -0 1 0
-0.1356 0.21961001 -0.54111999 1.4693679e-39 0 -0 1 0
0.036559999 0.22192 -0.54193002 1.7448898e-39 0 -0 1 0
0.047660001 0.22149 -0.54238999 1.8367225e-39 0 -0 1 0
0.05909 0.22085001 -0.54238999 1.7448898e-39 0 -0 1 0
0.070220001 0.22042 -0.54285997 2.6661301e-39 0 -0 1 0
0.10389 0.21872 -0.54330999 2.4828178e-39 0 -0 1 0
0.11545 0.21828 -0.54378003 2.482815e-39 0 -0 1 0
0.12665001 0.21785 -0.54424 1.9292909e-39 0 -0 1 0
0.13762 0.21702 -0.54377002 2.3902719e-39 0 -0 1 0
0.14922 0.21657 -0.54422998 2.2980706e-39 0 -0 1 0
0.31676 0.21872 -0.54409999 1.0102045e-39 0 -0 1 0
0.32800001 0.21808 -0.54408997 1.6545019e-39 0 -0 1 0
0.33904001 0.21703 -0.54316002 1.6530628e-39 0 -0 1 0
0.35174999 0.21738 -0.54548001 1.5615874e-39 0 -0 1 0
-0.28062999 0.21647 -0.54031998 1.2856969e-39 0 -0 1 0
-0.12435 0.21897 -0.54111999 1.1938657e-39 0 -0 1 0
-0.11347 0.21834999 -0.54110998 1.4693735e-39 0 -0 1 0
-0.10222 0.21771 -0.54110998 1.7448828e-39 0 -0 1 0
-0.091329999 0.21709999 -0.54110003 1.7448898e-39 0 -0 1 0
-0.080449998 0.21648 -0.54110003 1.5612062e-39 0 -0 1 0
-0.33418 0.21892001 -0.53889 1.102026e-39 0 -0 1 0
-0.32348001 0.21832 -0.53887999 1.3775394e-39 0 -0 1 0
-0.31266999 0.21789999 -0.53935999 1.0101905e-39 0 -0 1 0
-0.30195999 0.21729 -0.53935999 1.561209e-39 0 -0 1 0
-0.29148999 0.21689001 -0.53983998 1.3775352e-39 0 -0 1 0
0.16031 0.21594 -0.54422998 2.6675748e-39 0 -0 1 0
0.17140999 0.21531001 -0.54421997 2.7594075e-39 0 -0 1 0
0.18287 0.21466 -0.54421997 2.6668588e-39 0 -0 1 0
0.19414 0.21423 -0.54468 2.4831836e-39 0 -0 1 0
0.20524999 0.21359999 -0.54468 2.4831836e-39 0 -0 1 0
-0.26989999 0.21585999 -0.54031003 1.4693707e-39 0 -0 1 0
-0.25938001 0.21546 -0.54079002 1.6530487e-39 0 -0 1 0
-0.24808 0.21462999 -0.54030001 1.7448786e-39 0 -0 1 0
-0.23735 0.21402 -0.54030001 1.5612146e-39 0 -0 1 0
-0.22662 0.21341 -0.54029 1.377538e-39 0 -0 1 0
-0.069200002 0.21584 -0.54109001 1.7448898e-39 0 -0 1 0
-0.058350001 0.21543001 -0.54155999 1.4693721e-39 0 -0 1 0
-0.047460001 0.21481 -0.54155999 1.6530459e-39 0 -0 1 0
-0.036200002 0.21416999 -0.54154998 1.561209e-39 0 -0 1 0
-0.02531 0.21376 -0.54202998 1.5612104e-39 0 -0 1 0
0.21672 0.21295001 -0.54466999 2.4831836e-39 0 -0 1 0
0.22782999 0.21232 -0.54466999 1.6545047e-39 0 -0 1 0
0.23872 0.21149001 -0.54418999 2.4846185e-39 0 -0 1 0
0.25018999 0.21084 -0.54417998 2.2073197e-39 0 -0 1 0
0.26129001 0.21021 -0.54417998 2.2998741e-39 0 -0 1 0
-0.21554001 0.21278 -0.54029 1.9285608e-39 0 -0 1 0
-0.20497 0.21236999 -0.54075998 1.7448856e-39 0 -0 1 0
-0.19386999 0.21175 -0.54075998 1.7448856e-39 0 -0 1 0
-0.18313 0.21114001 -0.54075003 1.5612132e-39 0 -0 1 0
-0.17239 0.21053 -0.54075003 1.5612104e-39 0 -0 1 0
-0.01441 0.21294001 -0.54154003 1.4693721e-39 0 -0 1 0
-0.0031399999 0.21250001 -0.54201001 1.5612076e-39 0 -0 1 0
0.0077599999 0.21188 -0.54201001 1.4693721e-39 0 -0 1 0
0.01867 0.21126001 -0.542 1.6530515e-39 0 -0 1 0
0.02994 0.21062 -0.542 1.6530543e-39 0 -0 1 0
0.040890001 0.2102 -0.54246998 1.8367295e-39 0 -0 1 0
0.085440002 0.20807999 -0.54341 2.4828178e-39 0 -0 1 0
0.096369997 0.20746 -0.54339999 2.0207607e-39 0 -0 1 0
0.1074 0.20704 -0.54386997 1.8367267e-39 0 -0 1 0
0.27298999 0.20976 -0.54464 2.2998713e-39 0 -0 1 0
0.28385001 0.20894 -0.54417002 2.2998741e-39 0 -0 1 0
0.29493999 0.20830999 -0.54416001 1.9310902e-39 0 -0 1 0
0.30614001 0.20746 -0.54368001 2.0225613e-39 0 -0 1 0
0.3175 0.20703 -0.54414999 1.9303657e-39 0 -0 1 0
-0.1613 0.20990001 -0.54074001 1.3775409e-39 0 -0 1 0
-0.15056001 0.20929 -0.54074001 1.5612076e-39 0 -0 1 0
-0.13981999 0.20868 -0.54073 1.7448856e-39 0 -0 1 0
-0.12882 0.20825 -0.54121 1.1938629e-39 0 -0 1 0
-0.11807 0.20764001 -0.54121 1.4693735e-39 0 -0 1 0
-0.10732 0.20703 -0.54119998 2.0203977e-39 0 -0 1 0
0.052159999 0.20956001 -0.54246998 1.7448926e-39 0 -0 1 0
0.063139997 0.20914 -0.54294002 2.0207607e-39 0 -0 1 0
0.074069999 0.20852 -0.54293001 2.1129591e-39 0 -0 1 0
-0.33583 0.20828 -0.53877002 1.3775338e-39 0 -0 1 0
-0.32527 0.20768 -0.53876001 1.3775409e-39 0 -0 1 0
-0.31496 0.20728999 -0.53925002 1.4693721e-39 0 -0 1 0
0.11871 0.20638999 -0.54386997 2.2051519e-39 0 -0 1 0
0.12965 0.20577 -0.54386002 2.5746603e-39 0 -0 1 0
0.14059 0.20514999 -0.54386002 2.3902691e-39 0 -0 1 0
0.15204 0.20471001 -0.54433 2.6668559e-39 0 -0 1 0
0.32859999 0.20640001 -0.54414999 1.8381701e-39 0 -0 1 0
0.34007001 0.20575 -0.54413998 1.5615874e-39 0 -0 1 0
0.35115999 0.20512 -0.54413003 1.1938769e-39 0 -0 1 0
-0.28334001 0.20587 -0.54021001 1.3775366e-39 0 -0 1 0
-0.27261999 0.20545 -0.54070002 1.4693707e-39 0 -0 1 0
-0.26201999 0.20485 -0.54069 1.6530459e-39 0 -0 1 0
-0.25106001 0.20423 -0.54069 1.4693707e-39 0 -0 1 0
-0.096139997 0.2062 -0.54070997 1.9285538e-39 0 -0 1 0
-0.085409999 0.20559999 -0.54070997 1.5612076e-39 0 -0 1 0
-0.074670002 0.20499 -0.54070002 1.6530487e-39 0 -0 1 0
-0.063610002 0.20455 -0.54118001 1.5612104e-39 0 -0 1 0
-0.30428001 0.20687 -0.53973001 1.3775394e-39 0 -0 1 0
-0.29370001 0.20626999 -0.53973001 1.4693735e-39 0 -0 1 0
0.16283 0.20389 -0.54385 2.5757323e-39 0 -0 1 0
0.17393 0.20345999 -0.54431999 2.4828206e-39 0 -0 1 0
0.18525 0.20282 -0.54430997 2.760125e-39 0 -0 1 0
0.19638 0.20239 -0.54479003 2.2069568e-39 0 -0 1 0
0.2077 0.20175 -0.54478002 2.5753792e-39 0 -0 1 0
0.21866 0.20113 -0.54478002 1.8388959e-39 0 -0 1 0
-0.24045999 0.20363 -0.54067999 1.3775366e-39 0 -0 1 0
