//X,Y,Z
-0.211,-0.017,-2.08400011
-0.23100001,-0.014,-2.07500005
-0.23800001,-0.011,-1.96099997
-0.21600001,-0.012,-2.07599998
-0.236,-0.009,-2.06100011
-0.221,-0.008,-2.05699992
-0.207,-0.006,-2.06299996
0.212,-0.004,-2.04999995
0.227,-0.005,-2.05500007
0.207,-0.007,-2.06699991
0.23100001,-0.007,-1.96500003
0.221,-0.009,-2.06399989
0.237,-0.008,-1.89999998
0.234,-0.011,-2.04399991
0.214,-0.014,-2.05900002
0.23199999,-0.012,-1.90699995
0.229,-0.016,-2.05900002
0.20900001,-0.019,-2.06500006
0.229,-0.018,-1.94000006
0.223,-0.022,-2.06599998
0.20100001,-0.026,-2.05900002
0.23199999,-0.024,-2.01999998
0.215,-0.029,-2.05900002
0.23199999,-0.026,-1.903
0.23,-0.032,-2.06399989
0.206,-0.036,-2.04699993
0.221,-0.04,-2.05299997
0.23,-0.043,-2.01300001
0.229,-0.044,-1.88999999
0.079,-0.171,-2.0150001
-0.074,-0.163,-1.91999996
-0.016,-0.168,-2.046
0.015,-0.167,-2.06399989
0.048,-0.16500001,-2.07800007
0.08,-0.162,-2.07399988
-0.081,-0.161,-2.06500006
-0.017,-0.156,-2.08299994
0.015,-0.152,-2.06900001
0.047,-0.15000001,-2.0769999
0.079,-0.147,-2.07500005
-0.082,-0.146,-2.06399989
-0.017,-0.142,-2.08200002
0.072,0.16599999,-2.07599998
0.105,0.168,-2.08400011
-0.055,0.171,-2.06500006
0.01,0.176,-2.08100009
0.042,0.177,-2.07200003
0.075,0.18000001,-2.0769999
0.109,0.182,-2.08299994
-0.051,0.185,-2.06500006
-0.019,0.18799999,-2.07500005
0.013,0.19,-2.07200003
0.045,0.191,-2.06200004
0.077,0.191,-2.04200006
0.108,0.191,-2.01999998
-0.047,0.19499999,-2.01900005
0.234,0,-1.88199997
0.228,-0.001,-1.94299996
0.22499999,-0.003,-2.04500008
0.237,-0.005,-1.89300001
0.20999999,-0.005,-2.03800011
0.228,-0.006,-1.93499994
0.229,-0.008,-2.05800009
0.214,-0.009,-2.05500007
0.228,-0.01,-1.91299999
0.23,-0.011,-2.05900002
0.21600001,-0.012,-2.05800009
0.228,-0.012,-1.90499997
0.20100001,-0.013,-2.06200004
0.23100001,-0.014,-2.05500007
0.21699999,-0.014,-2.05999994
0.229,-0.014,-1.90499997
0.20200001,-0.014,-2.05299997
0.233,-0.015,-2.05999994
0.21799999,-0.015,-2.06100011
0.23100001,-0.015,-1.91400003
0.204,-0.015,-2.06500006
0.234,-0.015,-2.05800009
0.219,-0.015,-2.05500007
0.204,-0.014,-2.05800009
-0.21699999,0.028,-2.06100011
-0.23199999,0.032,-2.06800008
-0.235,0.034,-1.977
-0.235,0.044,-1.995
-0.214,0.048,-2.08599997
-0.23800001,0.047,-1.91499996
-0.228,0.052,-2.08200002
-0.235,0.056,-2.01999998
-0.20999999,0.059,-2.08100009
-0.235,0.057,-1.91600001
-0.22400001,0.064,-2.079
-0.233,0.068,-2.04399991
-0.207,0.072,-2.09200001
-0.236,0.07,-1.95000005
-0.221,0.077,-2.08999991
-0.23199999,0.082,-2.07299995
-0.234,0.084,-1.97500002
-0.21600001,0.091,-2.08800006
-0.229,0.097,-2.08899999
-0.233,0.1,-2.01200008
-0.046,0.19499999,-1.91900003
-0.05,0.19499999,-2.05900002
-0.018,0.19400001,-2.06699991
0.013,0.191,-2.06299996
0.046,0.19,-2.06999993
0.079,0.189,-2.07299995
0.112,0.18799999,-2.08699989
-0.052,0.18099999,-2.06800008
0.012,0.17900001,-2.08299994
0.045,0.176,-2.07399988
0.077,0.17399999,-2.0769999
0.11,0.17299999,-2.08299994
-0.123,-0.14,-2.06399989
-0.03,-0.148,-2.07599998
0,-0.15099999,-2.07999992
0.031,-0.153,-2.079
-0.12800001,-0.153,-2.06299996
-0.067,-0.16,-2.08299994
-0.035,-0.162,-2.07599998
-0.004,-0.164,-2.07500005
0.026,-0.167,-2.08200002
-0.131,-0.163,-2.01600003
0.019,-0.167,-1.92499995
-0.237,0.052,-1.954
-0.233,0.054,-2.04099989
-0.222,0.055,-2.0769999
-0.233,0.053,-1.99100006
-0.208,0.054,-2.07800007
-0.229,0.054,-2.079
-0.235,0.052,-1.95899999
-0.215,0.053,-2.08400011
-0.23199999,0.053,-2.05500007
-0.237,0.049,-1.926
-0.22,0.052,-2.07599998
-0.234,0.05,-2.0150001
-0.206,0.05,-2.0769999
-0.227,0.05,-2.08200002
-0.236,0.047,-1.98699999
-0.213,0.047,-2.08500004
-0.23199999,0.046,-2.06999993
-0.236,0.042,-1.93599999
-0.21799999,0.044,-2.0769999
-0.235,0.042,-2.04299998
-0.223,0.039,-2.06200004
-0.20900001,0.036,-2.06399989
0.212,-0.05,-2.05699992
0.22499999,-0.057,-2.05599999
0.204,-0.063,-2.06599998
0.233,-0.062,-2.01099992
0.21699999,-0.069,-2.06599998
0.235,-0.065,-1.921
0.23,-0.076,-2.06599998
0.207,-0.082,-2.05900002
0.23,-0.078,-1.95299995
0.22,-0.089,-2.06299996
0.23100001,-0.096,-2.05100012
0.20999999,-0.103,-2.06399989
0.222,-0.11,-2.06399989
0.198,-0.117,-2.05999994
0.23100001,-0.116,-2.03399992
0.20999999,-0.125,-2.05800009
0.228,-0.116,-1.90600002
0.222,-0.133,-2.05599999
0.197,-0.139,-2.04299998
0.23,-0.138,-2.02200007
0.20900001,-0.147,-2.04200006
0.227,-0.13699999,-1.89999998
0.221,-0.156,-2.04500008
0.228,-0.161,-2.00900006
0.226,-0.16,-1.89300001
0.022,-0.168,-2.01699996
-0.13,-0.16,-1.91499996
-0.072,-0.16500001,-2.05100012
-0.039,-0.163,-2.06399989
-0.006,-0.162,-2.07999992
0.026,-0.15899999,-2.07800007
-0.13600001,-0.15800001,-2.06200004
-0.07,-0.153,-2.07999992
-0.036,-0.15000001,-2.07299995
-0.002,-0.148,-2.08299994
0.03,-0.145,-2.079
-0.132,-0.14399999,-2.05800009
-0.099,-0.142,-2.07599998
-0.066,-0.139,-2.08100009
0.163,0.15899999,-2.08100009
0.07,0.164,-2.07599998
0.103,0.16599999,-2.06800008
0.13699999,0.169,-2.0769999
0.17,0.171,-2.079
0.012,0.17200001,-2.06699991
0.078,0.177,-2.079
0.111,0.178,-2.07200003
0.145,0.18099999,-2.07999992
0.178,0.184,-2.08100009
0.019,0.184,-2.06699991
0.086,0.18799999,-2.0710001
0.118,0.19,-2.06100011
0.15000001,0.19,-2.04399991
0.027,0.193,-2.03200006
0.09,0.192,-1.98099995
0.033,0.193,-1.91199994
0.22499999,-0.103,-1.89100003
0.228,-0.108,-2.03500009
0.215,-0.105,-2.04299998
0.228,-0.099,-1.898
0.20100001,-0.102,-2.04500008
0.23100001,-0.103,-2.04299998
0.219,-0.101,-2.05999994
0.23,-0.094,-1.90100002
0.205,-0.097,-2.05900002
0.23100001,-0.096,-2.02999997
0.221,-0.094,-2.06500006
0.23100001,-0.087,-1.89999998
0.207,-0.09,-2.06399989
0.23100001,-0.088,-2.0079999
0.223,-0.086,-2.05999994
0.234,-0.08,-1.90799999
0.20900001,-0.082,-2.05999994
0.23100001,-0.079,-1.99000001
0.22499999,-0.077,-2.06100011
0.236,-0.072,-1.90799999
0.212,-0.073,-2.06399989
0.229,-0.069,-1.95599997
0.227,-0.067,-2.05800009
0.214,-0.062,-2.05900002
0.2,-0.057,-2.05800009
-0.206,0.075,-2.06599998
-0.21799999,0.083,-2.06399989
-0.23,0.092,-2.06500006
-0.235,0.097,-2.00200009
-0.212,0.103,-2.07999992
-0.237,0.102,-1.92400002
-0.223,0.111,-2.07599998
-0.234,0.12,-2.06500006
-0.237,0.125,-1.99399996
-0.215,0.132,-2.08400011
-0.226,0.141,-2.07999992
-0.233,0.148,-2.03999996
-0.206,0.153,-2.08500004
-0.236,0.152,-1.96899998
-0.21699999,0.163,-2.08200002
-0.227,0.17200001,-2.07599998
-0.163,0.177,-2.08599997
-0.233,0.17900001,-2.03699994
-0.206,0.185,-2.08699989
-0.17299999,0.18700001,-2.08400011
-0.234,0.18099999,-1.95700002
-0.21600001,0.19499999,-2.08400011
-0.184,0.197,-2.08899999
-0.21699999,0.19599999,-1.99000001
-0.183,0.19499999,-1.96099997
-0.22,0.2,-1.93099999
-0.191,0.20299999,-1.94599998
0.022,0.193,-1.91100001
0.052,0.192,-1.91400003
0.175,0.18799999,-1.93599999
0.019,0.192,-2.0250001
0.051,0.191,-2.04399991
0.083,0.19,-2.04999995
0.115,0.189,-2.05699992
0.148,0.18799999,-2.06200004
0.18099999,0.18700001,-2.07299995
0.014,0.182,-2.06900001
0.078,0.17900001,-2.07800007
0.11,0.177,-2.06900001
0.14300001,0.175,-2.0710001
0.175,0.17399999,-2.06999993
0.008,0.168,-2.05800009
0.072,0.16500001,-2.06900001
0.104,0.163,-2.06699991
0.13699999,0.162,-2.07299995
0.169,0.16,-2.0710001
-0.18000001,-0.13500001,-2.06100011
-0.15099999,-0.13699999,-2.07200003
-0.121,-0.139,-2.08100009
-0.09,-0.14,-2.06999993
-0.06,-0.142,-2.079
-0.03,-0.14399999,-2.079
-0.19,-0.146,-2.06299996
-0.161,-0.148,-2.07399988
-0.131,-0.15000001,-2.07999992
-0.1,-0.15099999,-2.06999993
-0.07,-0.153,-2.07599998
-0.04,-0.155,-2.0769999
-0.2,-0.15700001,-2.06599998
-0.17,-0.15899999,-2.0710001
-0.14,-0.16,-2.0710001
-0.109,-0.161,-2.06299996
-0.079,-0.163,-2.06299996
-0.05,-0.16500001,-2.0769999
-0.199,-0.15899999,-1.96200001
-0.171,-0.162,-1.97099996
-0.142,-0.162,-1.96599996
-0.113,-0.162,-1.94799995
-0.084,-0.163,-1.94200003
-0.056,-0.164,-1.93799996
-0.236,0.16500001,-1.94700003
-0.23199999,0.167,-2.02800012
-0.22499999,0.167,-2.08599997
-0.233,0.156,-1.97899997
-0.211,0.162,-2.08699989
-0.23100001,0.15800001,-2.0769999
-0.235,0.145,-1.94099998
-0.21799999,0.153,-2.08800006
-0.23199999,0.146,-2.02900004
-0.22499999,0.14399999,-2.08200002
-0.235,0.133,-1.99100006
-0.212,0.138,-2.08500004
-0.23199999,0.133,-2.07200003
-0.236,0.12,-1.93299997
-0.22,0.127,-2.08500004
-0.234,0.119,-2.02099991
-0.207,0.12,-2.08299994
-0.228,0.115,-2.07800007
-0.235,0.104,-1.95799994
-0.214,0.108,-2.0769999
-0.233,0.102,-2.0480001
-0.222,0.095,-2.06299996
-0.20900001,0.088,-2.06200004
0.20200001,-0.105,-2.05900002
0.212,-0.116,-2.05699992
0.223,-0.127,-2.06500006
0.198,-0.13500001,-2.06200004
0.23199999,-0.13699999,-2.05200005
0.20900001,-0.147,-2.06800008
0.229,-0.139,-1.93599999
0.076,-0.148,-2.03900003
0.111,-0.15000001,-2.04399991
0.147,-0.153,-2.05999994
0.182,-0.155,-2.05699992
0.21699999,-0.15700001,-2.05800009
0.234,-0.147,-1.90600002
0.086,-0.15899999,-2.03500009
0.121,-0.162,-2.0539999
0.15700001,-0.164,-2.06100011
0.192,-0.16599999,-2.05900002
0.228,-0.168,-2.06200004
0.094,-0.168,-2.02099991
0.12899999,-0.171,-2.02900004
0.163,-0.17200001,-2.02099991
0.19599999,-0.17200001,-2.00600004
0.226,-0.171,-1.96500003
0.12899999,-0.17,-1.89600003
0.162,-0.17200001,-1.90199995
0.19400001,-0.17299999,-1.89400005
-0.047,-0.16500001,-1.92400002
-0.168,-0.161,-1.91299999
-0.13600001,-0.15899999,-1.91600001
-0.108,-0.163,-1.98899996
-0.077,-0.16500001,-2.03999996
-0.043,-0.16500001,-2.06500006
-0.20299999,-0.16,-2.00699997
-0.17299999,-0.161,-2.05100012
-0.139,-0.15899999,-2.06699991
-0.104,-0.15700001,-2.06699991
-0.07,-0.156,-2.07800007
-0.036,-0.154,-2.07399988
-0.20100001,-0.152,-2.06699991
-0.16599999,-0.15000001,-2.07299995
-0.132,-0.148,-2.07599998
-0.096,-0.145,-2.06500006
-0.062,-0.14399999,-2.0769999
-0.028,-0.141,-2.07500005
-0.192,-0.139,-2.05999994
-0.15800001,-0.138,-2.07200003
-0.123,-0.13600001,-2.07500005
0.213,0.125,-2.06900001
0.22400001,0.13500001,-2.06699991
0.237,0.145,-2.0769999
0.214,0.15099999,-2.07399988
0.23100001,0.14300001,-1.93299997
0.19,0.15700001,-2.06200004
0.226,0.16,-2.07399988
0.169,0.164,-2.07599998
0.20299999,0.16599999,-2.06699991
0.236,0.168,-2.06399989
0.113,0.167,-2.05500007
0.18099999,0.17299999,-2.07299995
0.215,0.175,-2.06800008
0.124,0.175,-2.05299997
0.15800001,0.178,-2.05999994
0.193,0.18099999,-2.07599998
0.226,0.183,-2.06500006
0.13699999,0.183,-2.05999994
0.171,0.186,-2.06699991
0.20299999,0.18700001,-2.05299997
0.23199999,0.185,-2.00900006
0.148,0.19,-2.04699993
0.178,0.189,-2.01399994
0.207,0.18799999,-1.97399998
0.154,0.19,-1.96500003
0.138,-0.17399999,-1.89199996
0.16599999,-0.17399999,-1.89499998
0.13,-0.171,-1.93900001
0.161,-0.17399999,-1.97500002
0.191,-0.175,-1.99100006
0.222,-0.177,-2.01399994
0.125,-0.17200001,-2.03600001
0.155,-0.17299999,-2.05500007
0.186,-0.17299999,-2.06299996
0.215,-0.17200001,-2.05800009
0.113,-0.164,-2.03699994
0.14300001,-0.16500001,-2.0539999
0.17399999,-0.16500001,-2.06399989
0.204,-0.164,-2.06299996
0.23,-0.161,-2.0309999
0.101,-0.156,-2.03800011
0.132,-0.15700001,-2.05999994
0.162,-0.15700001,-2.06500006
0.192,-0.156,-2.06399989
0.222,-0.156,-2.06900001
0.09,-0.148,-2.03900003
0.12,-0.148,-2.05699992
0.211,-0.147,-2.0710001
0.227,-0.138,-1.95099998
0.199,-0.138,-2.06900001
0.23,-0.138,-2.07399988
0.21799999,-0.12800001,-2.06900001
0.206,-0.119,-2.06800008
-0.20999999,0.163,-2.06200004
-0.082,0.17200001,-2.08299994
-0.05,0.17399999,-2.08599997
-0.21799999,0.176,-2.06500006
-0.18700001,0.17900001,-2.07500005
-0.155,0.18099999,-2.079
-0.122,0.182,-2.07599998
-0.09,0.185,-2.08200002
-0.058,0.18700001,-2.08400011
-0.227,0.189,-2.07299995
-0.19499999,0.191,-2.07500005
-0.162,0.193,-2.08100009
-0.12899999,0.19400001,-2.06399989
-0.096,0.19400001,-2.0539999
-0.063,0.19400001,-2.02900004
-0.23,0.198,-2.02999997
-0.19599999,0.197,-2.00900006
-0.097,0.19400001,-1.92499995
-0.068,0.197,-1.94000006
-0.22499999,0.199,-1.91999996
-0.19400001,0.20100001,-1.91999996
0.111,0.19,-1.89699996
0.142,0.189,-1.90900004
0.17200001,0.18799999,-1.90999997
0.109,0.189,-1.99399996
0.14,0.18799999,-2.00600004
0.17299999,0.18700001,-2.01600003
0.204,0.185,-2.00900006
0.235,0.183,-2.00200009
0.103,0.183,-2.05100012
0.13600001,0.183,-2.06900001
0.169,0.18099999,-2.07500005
0.2,0.17900001,-2.06699991
0.233,0.177,-2.06900001
0.094,0.17200001,-2.0539999
0.126,0.171,-2.06299996
0.15800001,0.169,-2.06299996
0.191,0.167,-2.06399989
0.22400001,0.16599999,-2.07200003
0.237,0.152,-1.91999996
0.214,0.155,-2.06999993
0.23800001,0.148,-1.99800003
0.237,0.14300001,-2.0769999
0.226,0.131,-2.0710001
0.21600001,0.12,-2.06999993
0.205,0.11,-2.0710001
-0.20900001,-0.089,-2.06299996
-0.221,-0.096,-2.06299996
-0.235,-0.104,-2.0710001
-0.237,-0.107,-1.98300004
-0.21799999,-0.112,-2.07599998
-0.23100001,-0.119,-2.07399988
-0.23800001,-0.123,-2.02600002
-0.214,-0.126,-2.07999992
-0.23800001,-0.123,-1.92299998
-0.227,-0.133,-2.08200002
-0.19599999,-0.132,-2.07399988
-0.167,-0.133,-2.07800007
-0.237,-0.13699999,-2.04900002
-0.20999999,-0.139,-2.07599998
-0.18099999,-0.139,-2.08200002
-0.15000001,-0.139,-2.07299995
-0.23899999,-0.13699999,-1.95899999
-0.223,-0.145,-2.07500005
-0.19400001,-0.145,-2.07999992
-0.163,-0.14399999,-2.0710001
-0.235,-0.15000001,-2.06299996
-0.207,-0.15099999,-2.08200002
-0.177,-0.15099999,-2.07800007
-0.23800001,-0.149,-1.97500002
-0.221,-0.15700001,-2.08299994
-0.19,-0.156,-2.07800007
-0.229,-0.15899999,-2.03299999
-0.204,-0.162,-2.07399988
-0.233,-0.15800001,-1.95200002
-0.207,-0.15899999,-1.972
-0.21600001,-0.161,-1.94000006
-0.214,0.20200001,-1.92400002
-0.091,0.19599999,-1.949
-0.236,0.19499999,-1.91999996
-0.213,0.20100001,-2.00500011
-0.182,0.2,-2.02099991
-0.15000001,0.199,-2.02999997
-0.118,0.198,-2.04500008
-0.086,0.198,-2.06599998
-0.233,0.191,-1.98199999
-0.20999999,0.198,-2.07500005
-0.176,0.19599999,-2.079
-0.14300001,0.19400001,-2.08200002
-0.109,0.192,-2.08500004
-0.076,0.19,-2.08200002
-0.23199999,0.18799999,-2.05800009
-0.2,0.18700001,-2.0769999
-0.16599999,0.186,-2.08400011
-0.132,0.183,-2.07599998
-0.099,0.18099999,-2.08100009
-0.065,0.17900001,-2.08400011
-0.223,0.17900001,-2.07800007
-0.19,0.177,-2.079
-0.156,0.175,-2.08200002
-0.089,0.171,-2.08200002
-0.055,0.169,-2.08599997
-0.212,0.167,-2.06800008
-0.001,-0.141,-2.05299997
0.032,-0.14399999,-2.06699991
0.066,-0.147,-2.06800008
0.099,-0.149,-2.06100011
0.134,-0.152,-2.06500006
0.168,-0.155,-2.06900001
0.004,-0.154,-2.05200005
0.038,-0.15800001,-2.06699991
0.072,-0.16,-2.06699991
0.14,-0.16599999,-2.06999993
0.175,-0.168,-2.06999993
0.009,-0.16599999,-2.03800011
0.043,-0.168,-2.03600001
0.076,-0.17,-2.02099991
0.139,-0.171,-1.97300005
0.169,-0.17,-1.93499994
0.014,-0.167,-1.89900005
0.045,-0.17,-1.90400004
0.077,-0.17200001,-1.903
-0.176,-0.162,-1.926
-0.14399999,-0.161,-1.93200004
-0.233,-0.155,-1.92499995
-0.205,-0.15800001,-1.97899997
-0.175,-0.16,-2.02600002
-0.142,-0.161,-2.04900002
-0.23800001,-0.155,-2.05100012
-0.205,-0.156,-2.07500005
-0.169,-0.155,-2.079
-0.133,-0.153,-2.07299995
-0.23,-0.148,-2.07999992
-0.193,-0.146,-2.07299995
-0.15800001,-0.145,-2.07500005
-0.122,-0.14300001,-2.0710001
-0.219,-0.138,-2.079
-0.182,-0.13600001,-2.0710001
-0.147,-0.13600001,-2.079
-0.111,-0.134,-2.06999993
-0.23999999,-0.12800001,-2.046
-0.207,-0.12899999,-2.0769999
-0.23100001,-0.12,-2.07299995
-0.219,-0.111,-2.07299995
-0.23899999,-0.102,-2.03500009
-0.208,-0.102,-2.07500005
-0.23,-0.094,-2.05900002
-0.21799999,-0.085,-2.06100011
0.206,0.061,-2.05800009
0.22,0.066,-2.05599999
0.235,0.072,-2.06500006
0.213,0.075,-2.06399989
0.23,0.071,-1.91400003
0.228,0.08,-2.07200003
0.206,0.083,-2.06200004
0.235,0.083,-2.00900006
0.22,0.088,-2.06100011
0.236,0.083,-1.90999997
0.233,0.092,-2.04999995
0.213,0.095,-2.06399989
0.229,0.089,-1.90499997
0.227,0.099,-2.06200004
0.206,0.1,-2.05999994
0.234,0.1,-2.00200009
0.22,0.104,-2.05800009
0.236,0.098,-1.903
0.234,0.107,-2.05699992
0.213,0.108,-2.04900002
0.23,0.103,-1.90600002
0.227,0.111,-2.04999995
0.23,0.109,-1.95200002
0.235,0.107,-1.88100004
0.17,-0.17299999,-1.921
0.02,-0.169,-1.89499998
0.11,-0.17299999,-2.0079999
0.142,-0.17399999,-2.04200006
0.17399999,-0.17399999,-2.06299996
0.014,-0.169,-2.03200006
0.075,-0.168,-2.06900001
0.13600001,-0.164,-2.06900001
0.167,-0.162,-2.06800008
0.006,-0.15899999,-2.05699992
0.067,-0.155,-2.06699991
0.097,-0.153,-2.06299996
0.12800001,-0.15099999,-2.06900001
-0.001,-0.147,-2.05999994
0.022,0.168,-2.08699989
-0.078,0.176,-2.07999992
-0.045,0.178,-2.07599998
-0.013,0.18000001,-2.08299994
0.019,0.182,-2.08500004
-0.146,0.186,-2.06999993
-0.081,0.19,-2.07500005
-0.049,0.192,-2.07200003
-0.016,0.193,-2.06500006
0.015,0.192,-2.04099989
-0.147,0.197,-2.0309999
-0.114,0.197,-2.0150001
0.011,0.19499999,-1.93299997
-0.142,0.198,-1.91299999
0.235,0.17200001,-1.89100003
0.233,0.169,-1.95700002
0.23199999,0.168,-2.04500008
0.221,0.16,-2.0480001
0.234,0.146,-1.90100002
0.20900001,0.152,-2.04999995
0.237,0.147,-2.01699996
0.23,0.142,-2.05599999
0.21799999,0.134,-2.05900002
0.237,0.123,-2.05100012
0.227,0.117,-2.07500005
0.214,0.109,-2.06599998
0.233,0.099,-2.06500006
0.234,0.084,-1.91499996
0.237,0.082,-2.0480001
0.227,0.076,-2.06900001
0.214,0.07,-2.07299995
0.234,0.065,-1.97899997
0.23199999,0.061,-2.06699991
0.21799999,0.055,-2.06500006
0.205,0.049,-2.06399989
-0.219,-0.04,-2.0539999
-0.233,-0.043,-2.05200005
-0.237,-0.044,-1.96399999
-0.21799999,-0.046,-2.06200004
-0.233,-0.048,-2.0710001
-0.23800001,-0.049,-1.98500001
-0.219,-0.051,-2.08200002
-0.233,-0.053,-2.07399988
-0.237,-0.053,-1.99199998
-0.21699999,-0.054,-2.07599998
-0.23100001,-0.055,-2.06999993
-0.235,-0.055,-1.98399997
-0.21600001,-0.056,-2.08200002
-0.23100001,-0.058,-2.07999992
-0.235,-0.056,-1.99000001
-0.215,-0.057,-2.07999992
-0.23,-0.058,-2.08599997
-0.235,-0.057,-2.00200009
-0.145,0.198,-1.93200004
-0.022,0.19400001,-1.97399998
0.008,0.19400001,-1.98399997
-0.15000001,0.199,-2.07399988
-0.116,0.19599999,-2.06500006
-0.083,0.19400001,-2.06800008
-0.05,0.193,-2.07399988
-0.017,0.191,-2.07800007
0.015,0.191,-2.09100008
-0.14300001,0.185,-2.06599998
-0.078,0.182,-2.07999992
-0.045,0.18000001,-2.079
-0.012,0.17900001,-2.08500004
0.02,0.177,-2.08599997
0.108,-0.148,-2.07299995
-0.053,-0.147,-2.05900002
0.011,-0.154,-2.07999992
0.044,-0.156,-2.06999993
0.077,-0.15899999,-2.0710001
0.11,-0.162,-2.07200003
-0.052,-0.161,-2.06399989
0.013,-0.16599999,-2.05699992
0.045,-0.168,-2.04500008
0.077,-0.17,-2.02999997
0.108,-0.17,-2
-0.047,-0.163,-1.91400003
-0.23899999,-0.106,-1.977
-0.23800001,-0.104,-2.0769999
-0.22499999,-0.098,-2.08299994
-0.23800001,-0.088,-1.99399996
-0.212,-0.092,-2.08500004
-0.235,-0.086,-2.08200002
-0.222,-0.08,-2.08400011
-0.23800001,-0.072,-2.02900004
-0.208,-0.075,-2.08500004
-0.23,-0.069,-2.07599998
-0.23999999,-0.06,-1.97099996
-0.21699999,-0.063,-2.079
-0.237,-0.058,-2.06399989
-0.22499999,-0.053,-2.08200002
-0.23800001,-0.047,-2.00399995
-0.212,-0.049,-2.08100009
-0.233,-0.044,-2.07299995
-0.23899999,-0.037,-1.95000005
-0.219,-0.039,-2.07800007
-0.237,-0.035,-2.04900002
-0.22499999,-0.031,-2.06399989
-0.211,-0.027,-2.06599998
0.205,0.015,-2.05699992
0.22,0.016,-2.05699992
0.235,0.016,-2.06100011
0.215,0.016,-2.06699991
0.23100001,0.016,-1.91299999
0.229,0.016,-2.06500006
0.208,0.016,-2.06100011
0.23100001,0.016,-1.95799994
0.222,0.016,-2.05900002
0.20200001,0.014,-2.05999994
0.233,0.015,-2.02099991
0.21699999,0.014,-2.06500006
0.23100001,0.014,-1.89300001
0.23,0.013,-2.0539999
0.20999999,0.011,-2.05699992
0.228,0.012,-1.90900004
0.22400001,0.01,-2.05699992
0.20299999,0.008,-2.04699993
0.23100001,0.009,-1.99100006
0.21699999,0.006,-2.046
0.233,0.007,-1.89699996
0.23,0.005,-2.03800011
0.228,0.003,-1.89900005
-0.047,-0.16599999,-1.90600002
0.01,-0.17,-2.00600004
0.042,-0.17,-2.04200006
0.074,-0.168,-2.0539999
0.106,-0.167,-2.07500005
-0.054,-0.16500001,-2.05699992
0.008,-0.162,-2.08200002
0.039,-0.15800001,-2.06800008
0.071,-0.156,-2.07299995
0.103,-0.153,-2.07599998
-0.058,-0.152,-2.06200004
0.005,-0.148,-2.08200002
0.036,-0.14399999,-2.07200003
-0.06,-0.138,-2.06399989
-0.017,0.171,-2.08100009
0.015,0.17200001,-2.07500005
0.048,0.175,-2.08299994
0.08,0.177,-2.08299994
-0.081,0.18000001,-2.06299996
-0.016,0.186,-2.08400011
0.016,0.18700001,-2.079
0.048,0.189,-2.07800007
0.081,0.191,-2.07200003
-0.08,0.19499999,-2.06399989
-0.047,0.19499999,-2.04500008
-0.014,0.19400001,-2.01099992
0.016,0.192,-1.98199999
-0.073,0.19400001,-1.91199994
0.236,0.048,-1.88100004
0.227,0.045,-1.90900004
0.228,0.044,-2.03399992
0.23,0.036,-1.91100001
0.233,0.035,-2.04699993
0.22,0.032,-2.05999994
0.23199999,0.027,-1.90199995
0.205,0.028,-2.05299997
0.235,0.026,-2.03900003
0.22400001,0.024,-2.06599998
0.235,0.02,-1.90600002
0.20999999,0.021,-2.06800008
0.233,0.019,-2.00699997
0.22499999,0.017,-2.05900002
0.211,0.015,-2.06399989
0.233,0.013,-1.98699999
0.228,0.011,-2.06500006
0.213,0.009,-2.06699991
0.23199999,0.008,-1.96300006
0.228,0.006,-2.05800009
0.214,0.005,-2.05900002
-0.20999999,0.006,-2.05599999
-0.22400001,0.007,-2.0539999
-0.235,0.009,-2.02399993
-0.20999999,0.01,-2.07599998
-0.237,0.01,-1.921
-0.22499999,0.012,-2.07399988
-0.235,0.014,-2.03299999
-0.20999999,0.016,-2.08699989
-0.237,0.015,-1.93900001
-0.22400001,0.018,-2.08500004
-0.235,0.02,-2.0480001
-0.207,0.022,-2.07500005
-0.237,0.022,-1.95099998
-0.22,0.025,-2.0710001
-0.23199999,0.028,-2.04999995
-0.235,0.029,-1.95700002
-0.219,0.033,-2.08599997
-0.23199999,0.037,-2.07299995
-0.234,0.038,-1.972
-0.21600001,0.042,-2.07999992
-0.23100001,0.046,-2.08699989
-0.233,0.048,-1.99100006
-0.076,0.19400001,-1.93599999
0.047,0.192,-1.98899996
0.079,0.192,-2.00500011
-0.08,0.192,-2.06500006
-0.015,0.19,-2.0769999
0.017,0.18799999,-2.07599998
0.05,0.18700001,-2.08299994
0.083,0.185,-2.08400011
-0.078,0.178,-2.06299996
-0.014,0.176,-2.08200002
0.018,0.17299999,-2.07500005
0.051,0.17200001,-2.08500004
0.083,0.169,-2.079
-0.1,-0.13600001,-2.06299996
-0.037,-0.14300001,-2.07999992
-0.005,-0.145,-2.07399988
0.026,-0.148,-2.07999992
0.057,-0.15099999,-2.07500005
-0.103,-0.15000001,-2.05599999
-0.04,-0.15700001,-2.08500004
-0.008,-0.15899999,-2.06999993
0.022,-0.163,-2.08100009
0.054,-0.16500001,-2.07599998
-0.105,-0.163,-2.04900002
-0.042,-0.167,-2.02900004
-0.011,-0.168,-2.00500011
0.018,-0.168,-1.972
-0.101,-0.16500001,-1.903
-0.237,0.005,-1.96200001
-0.235,0.007,-2.05800009
-0.23899999,0.009,-1.92700005
-0.222,0.008,-2.07800007
-0.234,0.01,-2
-0.208,0.009,-2.07999992
-0.229,0.012,-2.08100009
-0.236,0.013,-1.96099997
-0.215,0.013,-2.08400011
-0.233,0.015,-2.05699992
-0.23899999,0.015,-1.93299997
-0.221,0.015,-2.07399988
-0.235,0.016,-2.023
-0.206,0.016,-2.0710001
-0.227,0.017,-2.08200002
-0.237,0.017,-1.98599994
-0.213,0.017,-2.08500004
-0.233,0.018,-2.0710001
-0.237,0.017,-1.93599999
-0.21799999,0.017,-2.07399988
-0.235,0.017,-2.04200006
-0.223,0.017,-2.06200004
-0.208,0.016,-2.06100011
0.207,-0.027,-2.05699992
0.222,-0.031,-2.05599999
0.20100001,-0.035,-2.06800008
0.234,-0.035,-2.04699993
0.215,-0.039,-2.06599998
0.233,-0.037,-1.921
0.229,-0.044,-2.06299996
0.207,-0.048,-2.06100011
0.23,-0.046,-1.95700002
0.221,-0.053,-2.06299996
0.199,-0.058,-2.06399989
0.23199999,-0.057,-2.03800011
0.213,-0.063,-2.06599998
0.226,-0.069,-2.06399989
0.20299999,-0.074,-2.05200005
0.23,-0.071,-1.98000002
0.21699999,-0.08,-2.06100011
0.233,-0.074,-1.898
0.23,-0.086,-2.05999994
0.206,-0.091,-2.04500008
0.227,-0.086,-1.91999996
0.219,-0.097,-2.0480001
0.236,-0.09,-1.89999998
0.23,-0.103,-2.02800012
0.227,-0.102,-1.898
0.048,-0.169,-2.00300002
-0.104,-0.161,-1.91100001
-0.046,-0.16599999,-2.03999996
-0.013,-0.16500001,-2.05900002
0.019,-0.164,-2.07999992
0.051,-0.161,-2.07500005
-0.11,-0.16,-2.06500006
-0.045,-0.155,-2.08200002
-0.012,-0.15099999,-2.0710001
0.02,-0.149,-2.07800007
0.053,-0.146,-2.07599998
-0.108,-0.145,-2.05999994
-0.043,-0.14,-2.07999992
0.134,0.16,-2.08299994
0.04,0.167,-2.07999992
0.073,0.168,-2.06599998
0.106,0.171,-2.07599998
0.14,0.17299999,-2.08200002
-0.019,0.175,-2.06599998
0.046,0.18099999,-2.08100009
0.079,0.182,-2.07200003
0.112,0.185,-2.07999992
0.146,0.18700001,-2.08400011
-0.013,0.18799999,-2.06299996
0.019,0.191,-2.06999993
0.051,0.192,-2.05699992
0.083,0.192,-2.03999996
0.114,0.19,-1.99899995
0.14300001,0.19,-1.97099996
-0.007,0.19400001,-1.98599994
0.23,-0.055,-1.88199997
0.228,-0.057,-1.98099995
0.221,-0.058,-2.04200006
0.233,-0.055,-1.89699996
0.206,-0.057,-2.03500009
0.23,-0.057,-1.99000001
0.22400001,-0.057,-2.05999994
0.235,-0.054,-1.90600002
0.20900001,-0.056,-2.05500007
0.23,-0.055,-1.97500002
0.22499999,-0.056,-2.06299996
0.236,-0.052,-1.90100002
0.211,-0.054,-2.05999994
0.229,-0.052,-1.95899999
0.227,-0.052,-2.05900002
0.212,-0.05,-2.05800009
0.229,-0.048,-1.949
0.228,-0.048,-2.06299996
0.213,-0.045,-2.05699992
0.229,-0.043,-1.93200004
0.229,-0.043,-2.05900002
0.215,-0.039,-2.05599999
0.20100001,-0.036,-2.05900002
-0.208,0.051,-2.06699991
-0.222,0.057,-2.06900001
-0.234,0.064,-2.06200004
-0.236,0.067,-1.96899998
-0.21799999,0.072,-2.079
-0.23100001,0.079,-2.07599998
-0.236,0.083,-2.00900006
-0.213,0.088,-2.08800006
-0.23800001,0.086,-1.92200005
-0.226,0.096,-2.08500004
-0.234,0.101,-2.04299998
-0.207,0.105,-2.08599997
-0.237,0.104,-1.96399999
-0.22,0.113,-2.08800006
-0.23,0.12,-2.06999993
-0.234,0.123,-1.99399996
-0.213,0.131,-2.09299994
-0.22499999,0.139,-2.08999991
-0.23199999,0.145,-2.04999995
-0.205,0.15000001,-2.08999991
-0.21600001,0.15800001,-2.08699989
-0.228,0.167,-2.09299994
-0.233,0.171,-2.02900004
-0.235,0.17299999,-1.95500004
-0.011,0.191,-1.93099999
0.112,0.19,-1.98500001
0.14399999,0.189,-1.99199998
-0.015,0.191,-2.06800008
0.049,0.18799999,-2.07800007
0.081,0.186,-2.07200003
0.114,0.184,-2.079
0.146,0.183,-2.079
-0.019,0.177,-2.06800008
0.045,0.17399999,-2.08299994
0.077,0.171,-2.06500006
0.11,0.17,-2.0769999
0.142,0.168,-2.07599998
-0.152,-0.139,-2.0539999
-0.123,-0.142,-2.07200003
-0.093,-0.14399999,-2.07999992
-0.061,-0.146,-2.06900001
-0.031,-0.149,-2.08200002
0,-0.15000001,-2.079
-0.161,-0.15099999,-2.06200004
-0.131,-0.154,-2.07299995
-0.1,-0.15700001,-2.07999992
-0.069,-0.15800001,-2.06900001
-0.039,-0.161,-2.08500004
-0.008,-0.163,-2.07800007
-0.167,-0.162,-2.04299998
-0.13699999,-0.164,-2.04200006
-0.106,-0.16500001,-2.03200006
-0.075,-0.16599999,-2.01799989
-0.045,-0.167,-2.00099993
-0.016,-0.167,-1.98000002
-0.163,-0.163,-1.90499997
-0.23199999,0.112,-2.00399995
-0.227,0.114,-2.08400011
-0.234,0.106,-1.96500003
-0.212,0.11,-2.07999992
-0.23100001,0.108,-2.06500006
-0.236,0.1,-1.92999995
-0.219,0.106,-2.08299994
-0.23199999,0.1,-2.01600003
-0.205,0.102,-2.08500004
-0.22499999,0.1,-2.07800007
-0.236,0.093,-1.98899996
-0.211,0.095,-2.0769999
-0.23100001,0.092,-2.06999993
-0.236,0.084,-1.93700004
-0.219,0.088,-2.08100009
-0.234,0.084,-2.03500009
-0.205,0.084,-2.08599997
-0.23800001,0.075,-1.903
-0.22499999,0.08,-2.0769999
-0.235,0.073,-1.97899997
-0.211,0.075,-2.07800007
-0.23,0.071,-2.05800009
-0.21699999,0.066,-2.06299996
0.208,-0.079,-2.05800009
0.22,-0.088,-2.06299996
0.23199999,-0.096,-2.06200004
0.208,-0.104,-2.06399989
0.229,-0.099,-1.94099998
0.22,-0.113,-2.06299996
0.236,-0.106,-1.90799999
0.23100001,-0.122,-2.05699992
0.207,-0.13,-2.05999994
0.229,-0.124,-1.94500005
0.21799999,-0.14,-2.05999994
0.236,-0.131,-1.91299999
0.228,-0.148,-2.04999995
0.132,-0.153,-2.03800011
0.168,-0.155,-2.05200005
0.204,-0.15700001,-2.06100011
0.228,-0.15099999,-1.96000004
0.142,-0.163,-2.04299998
0.17900001,-0.16500001,-2.05599999
0.215,-0.167,-2.06100011
0.23100001,-0.155,-1.898
0.15099999,-0.17,-2.0150001
0.18700001,-0.17299999,-2.02699995
0.222,-0.17399999,-2.02900004
0.15099999,-0.169,-1.88699996
0.184,-0.171,-1.89699996
0.21799999,-0.17299999,-1.90199995
-0.015,-0.167,-1.92999995
-0.13600001,-0.163,-1.91499996
-0.104,-0.161,-1.91799998
-0.043,-0.16599999,-2.03800011
-0.01,-0.16599999,-2.0710001
-0.17,-0.161,-2.01099992
-0.139,-0.162,-2.05299997
-0.106,-0.16,-2.06900001
-0.072,-0.15800001,-2.06699991
-0.038,-0.156,-2.079
-0.004,-0.154,-2.079
-0.168,-0.152,-2.06100011
-0.134,-0.15000001,-2.07599998
-0.1,-0.148,-2.08100009
-0.066,-0.145,-2.06800008
-0.032,-0.14399999,-2.08599997
0.001,-0.141,-2.07999992
-0.161,-0.139,-2.06200004
-0.12800001,-0.13699999,-2.06999993
0.205,0.15700001,-2.0769999
0.113,0.161,-2.07800007
0.146,0.162,-2.06500006
0.18099999,0.16500001,-2.0769999
0.214,0.168,-2.07500005
0.056,0.16599999,-2.05599999
0.124,0.17200001,-2.079
0.156,0.17299999,-2.06800008
0.191,0.176,-2.07500005
0.22400001,0.178,-2.07299995
0.066,0.176,-2.05500007
0.134,0.182,-2.0769999
0.167,0.184,-2.06999993
0.20100001,0.186,-2.06900001
0.076,0.18700001,-2.06100011
0.17299999,0.189,-2.01799989
0.20100001,0.18700001,-1.97399998
0.085,0.192,-2.00600004
0.09,0.191,-1.90699995
0.234,-0.168,-1.89900005
0.22400001,-0.16599999,-1.921
0.22400001,-0.171,-2.04299998
0.211,-0.16599999,-2.03999996
0.22499999,-0.155,-1.90799999
0.198,-0.16,-2.04200006
0.228,-0.162,-2.05200005
0.184,-0.155,-2.03999996
0.215,-0.156,-2.0539999
0.226,-0.145,-1.89999998
0.20200001,-0.15000001,-2.05599999
0.229,-0.149,-2.03999996
0.219,-0.145,-2.06200004
0.206,-0.139,-2.06399989
0.234,-0.122,-1.91299999
0.20900001,-0.125,-2.06100011
0.227,-0.119,-2.06699991
0.214,-0.112,-2.06699991
0.228,-0.104,-1.92799997
0.20200001,-0.105,-2.07200003
0.23199999,-0.104,-2.07399988
0.219,-0.096,-2.06800008
0.206,-0.089,-2.06500006
-0.206,0.112,-2.06399989
-0.21600001,0.123,-2.06599998
-0.226,0.134,-2.06800008
-0.235,0.14399999,-2.05500007
-0.205,0.147,-2.0769999
-0.236,0.15000001,-1.98000002
-0.215,0.15899999,-2.07800007
-0.237,0.155,-1.91400003
-0.22499999,0.17,-2.07599998
-0.12800001,0.176,-2.08100009
-0.095,0.177,-2.07800007
-0.23199999,0.18000001,-2.06100011
-0.20200001,0.183,-2.07999992
-0.169,0.185,-2.08100009
-0.13699999,0.18700001,-2.08100009
-0.105,0.19,-2.08800006
-0.235,0.186,-1.99800003
-0.211,0.19499999,-2.07800007
-0.177,0.19499999,-2.06500006
-0.14399999,0.19599999,-2.04900002
-0.11,0.19400001,-2.01900005
-0.236,0.191,-1.93799996
-0.20999999,0.197,-1.98500001
-0.114,0.198,-1.94200003
-0.212,0.20200001,-1.92400002
0.066,0.189,-1.91100001
0.096,0.18799999,-1.91900003
0.127,0.18799999,-1.93200004
0.19,0.18700001,-1.95299995
0.219,0.184,-1.94099998
0.063,0.19,-2.03800011
0.095,0.189,-2.0539999
0.12800001,0.18799999,-2.06100011
0.16,0.18700001,-2.06299996
0.193,0.186,-2.06800008
0.226,0.184,-2.0710001
0.056,0.17900001,-2.05800009
0.088,0.178,-2.06299996
0.121,0.177,-2.07599998
0.153,0.175,-2.06800008
0.186,0.17399999,-2.07500005
0.21799999,0.171,-2.06900001
0.048,0.167,-2.05900002
0.08,0.16599999,-2.06399989
0.113,0.16500001,-2.0769999
0.14399999,0.162,-2.06299996
0.177,0.161,-2.07200003
0.20900001,0.15899999,-2.06800008
-0.20900001,-0.12,-2.06299996
-0.221,-0.12899999,-2.06100011
-0.192,-0.13,-2.0769999
-0.162,-0.132,-2.08200002
-0.233,-0.138,-2.07299995
-0.20299999,-0.139,-2.07500005
-0.17399999,-0.14,-2.08100009
-0.14300001,-0.141,-2.07299995
-0.113,-0.142,-2.079
-0.083,-0.142,-2.0710001
-0.23800001,-0.14300001,-2.01399994
-0.215,-0.148,-2.07599998
-0.185,-0.149,-2.07999992
-0.155,-0.149,-2.0710001
-0.125,-0.15000001,-2.07999992
-0.095,-0.15099999,-2.07299995
-0.23800001,-0.14399999,-1.91900003
-0.227,-0.156,-2.07200003
-0.197,-0.15800001,-2.07999992
-0.167,-0.15800001,-2.07500005
-0.13699999,-0.15899999,-2.08100009
-0.107,-0.15899999,-2.07500005
-0.23100001,-0.16,-2.00500011
-0.20299999,-0.161,-2.01999998
-0.17399999,-0.162,-2.02099991
-0.146,-0.163,-2.02699995
-0.117,-0.164,-2.03200006
-0.233,-0.161,-1.92299998
-0.205,-0.161,-1.92299998
-0.177,-0.161,-1.91900003
-0.149,-0.162,-1.91799998
-0.122,-0.163,-1.92900002
-0.193,0.199,-1.96000004
-0.162,0.199,-1.97899997
-0.221,0.20100001,-2.02900004
-0.19,0.20100001,-2.05100012
-0.15899999,0.20200001,-2.08699989
-0.234,0.189,-1.96399999
-0.214,0.198,-2.07999992
-0.18000001,0.19599999,-2.08400011
-0.146,0.19400001,-2.08400011
-0.23199999,0.18799999,-2.04200006
-0.20200001,0.19,-2.08699989
-0.168,0.18799999,-2.08999991
-0.134,0.185,-2.08599997
-0.22400001,0.183,-2.08100009
-0.19,0.18099999,-2.08299994
-0.156,0.17900001,-2.08500004
-0.122,0.177,-2.08400011
-0.235,0.169,-1.98699999
-0.212,0.175,-2.08299994
-0.23199999,0.167,-2.05999994
-0.237,0.149,-1.91999996
-0.222,0.15899999,-2.07800007
-0.234,0.146,-1.98899996
-0.20999999,0.15099999,-2.079
-0.23100001,0.14300001,-2.06399989
-0.22,0.134,-2.06999993
-0.20900001,0.124,-2.06800008
0.028,-0.14399999,-2.05200005
0.062,-0.146,-2.05699992
0.097,-0.148,-2.05999994
0.131,-0.15099999,-2.05999994
0.16599999,-0.153,-2.06200004
0.20100001,-0.155,-2.05999994
0.036,-0.155,-2.0480001
0.07,-0.15800001,-2.05699992
0.105,-0.161,-2.06599998
0.139,-0.163,-2.05999994
0.175,-0.16599999,-2.06800008
0.20900001,-0.168,-2.06399989
0.043,-0.167,-2.03800011
0.077,-0.169,-2.04200006
0.111,-0.17,-2.03200006
0.14399999,-0.17200001,-2.01799989
0.176,-0.17200001,-1.99899995
0.207,-0.17200001,-1.96399999
0.047,-0.16599999,-1.89400005
0.078,-0.168,-1.898
0.111,-0.171,-1.90499997
0.14300001,-0.17299999,-1.90400004
0.175,-0.176,-1.90600002
-0.186,-0.161,-1.91799998
-0.153,-0.15899999,-1.91499996
-0.123,-0.16,-1.95099998
-0.092,-0.163,-1.99800003
-0.219,-0.15899999,-1.99100006
-0.189,-0.161,-2.03900003
-0.155,-0.16,-2.05599999
-0.121,-0.15899999,-2.06999993
-0.086,-0.15800001,-2.0710001
-0.21699999,-0.154,-2.06999993
-0.182,-0.153,-2.07800007
-0.146,-0.15000001,-2.06800008
-0.111,-0.149,-2.07500005
-0.076,-0.146,-2.06500006
-0.241,-0.14300001,-2.04900002
-0.208,-0.14300001,-2.07200003
-0.17299999,-0.142,-2.079
-0.13699999,-0.139,-2.06900001
-0.102,-0.138,-2.07599998
-0.233,-0.13500001,-2.07299995
-0.198,-0.133,-2.07299995
-0.163,-0.131,-2.07999992
-0.221,-0.123,-2.05900002
-0.211,-0.113,-2.06100011
0.212,0.088,-2.05800009
0.22499999,0.096,-2.06200004
0.204,0.101,-2.0710001
0.237,0.102,-2.05299997
0.21699999,0.108,-2.0710001
0.233,0.102,-1.921
0.23,0.115,-2.06900001
0.208,0.119,-2.06500006
0.234,0.117,-1.99300003
0.221,0.126,-2.06399989
0.237,0.119,-1.91499996
0.234,0.132,-2.05999994
0.214,0.13699999,-2.07399988
0.23,0.12800001,-1.91499996
0.228,0.14300001,-2.07500005
0.206,0.146,-2.06699991
0.236,0.145,-2.03200006
0.22,0.15099999,-2.06900001
0.234,0.142,-1.90799999
0.233,0.156,-2.06500006
0.211,0.15800001,-2.0539999
0.23,0.15099999,-1.92700005
0.22400001,0.164,-2.05500007
0.235,0.16599999,-2.02999997
0.23199999,0.16,-1.89400005
0.20999999,-0.17399999,-1.91900003
0.061,-0.169,-1.89499998
0.089,-0.17,-1.92299998
0.12,-0.17200001,-1.96399999
0.15099999,-0.17299999,-1.99600005
0.183,-0.175,-2.03399992
0.21600001,-0.176,-2.05699992
0.055,-0.17,-2.0250001
0.085,-0.171,-2.05299997
0.116,-0.17,-2.06500006
0.146,-0.169,-2.06399989
0.177,-0.168,-2.0710001
0.207,-0.16599999,-2.06699991
0.046,-0.161,-2.05100012
0.076,-0.16,-2.05699992
0.106,-0.16,-2.06800008
0.167,-0.15700001,-2.07200003
0.197,-0.155,-2.06900001
0.036,-0.15099999,-2.05200005
0.066,-0.15000001,-2.06299996
0.096,-0.149,-2.06699991
-0.073,0.17,-2.07200003
-0.041,0.17200001,-2.08400011
-0.009,0.175,-2.09200001
-0.175,0.177,-2.06699991
-0.14399999,0.18000001,-2.0769999
-0.111,0.182,-2.07800007
-0.079,0.183,-2.07500005
-0.047,0.186,-2.08299994
-0.014,0.18799999,-2.08999991
-0.18099999,0.191,-2.06699991
-0.149,0.193,-2.0710001
-0.116,0.19400001,-2.06599998
-0.083,0.19499999,-2.05200005
-0.05,0.193,-2.02099991
-0.019,0.192,-1.99000001
-0.18000001,0.197,-1.99300003
-0.178,0.20200001,-1.90999997
0.177,0.18700001,-1.903
0.207,0.185,-1.90699995
0.175,0.186,-1.99600005
0.208,0.185,-2.0079999
0.233,0.178,-1.95200002
0.17,0.18099999,-2.04900002
0.20200001,0.18000001,-2.05699992
0.236,0.178,-2.06599998
0.15899999,0.171,-2.04399991
0.192,0.17,-2.05900002
0.226,0.169,-2.07299995
0.237,0.153,-1.90499997
0.148,0.161,-2.046
0.18099999,0.16,-2.05999994
0.213,0.15800001,-2.06100011
0.235,0.15000001,-1.97099996
0.234,0.147,-2.05900002
0.22400001,0.138,-2.06500006
0.237,0.126,-1.90999997
0.212,0.12899999,-2.06200004
0.237,0.123,-1.99899995
0.234,0.118,-2.07299995
0.222,0.109,-2.07399988
0.234,0.099,-1.91400003
0.20999999,0.1,-2.07200003
0.23800001,0.097,-2.04099989
0.229,0.09,-2.06699991
0.21699999,0.082,-2.06399989
0.205,0.073,-2.06399989
-0.215,-0.062,-2.0539999
-0.229,-0.067,-2.05800009
-0.236,-0.07,-2.00399995
-0.214,-0.073,-2.07299995
-0.23899999,-0.072,-1.91499996
-0.229,-0.078,-2.0769999
-0.237,-0.08,-2.02900004
-0.213,-0.082,-2.08400011
-0.23800001,-0.081,-1.92799997
-0.227,-0.087,-2.08200002
-0.236,-0.089,-2.04200006
-0.20999999,-0.09,-2.0769999
-0.23800001,-0.089,-1.94200003
-0.22400001,-0.094,-2.07500005
-0.235,-0.096,-2.04399991
-0.20900001,-0.097,-2.08500004
-0.237,-0.095,-1.94799995
-0.22400001,-0.101,-2.08800006
-0.235,-0.103,-2.06100011
-0.208,-0.103,-2.08599997
-0.237,-0.101,-1.96300006
-0.222,-0.106,-2.08400011
-0.236,-0.109,-2.08400011
-0.236,-0.106,-1.96599996
-0.185,0.20100001,-1.921
-0.031,0.19400001,-1.95000005
-0.186,0.199,-2.01999998
-0.155,0.199,-2.03699994
-0.123,0.198,-2.0480001
-0.091,0.197,-2.06299996
-0.057,0.19499999,-2.06100011
-0.025,0.19499999,-2.08500004
-0.183,0.192,-2.06900001
-0.117,0.189,-2.08400011
-0.083,0.186,-2.07399988
-0.05,0.185,-2.08400011
-0.017,0.183,-2.08400011
-0.17399999,0.18000001,-2.06399989
-0.109,0.177,-2.08200002
-0.075,0.17399999,-2.07500005
-0.042,0.17299999,-2.08699989
-0.009,0.171,-2.08500004
-0.029,-0.147,-2.05999994
0.036,-0.154,-2.079
0.103,-0.15899999,-2.06999993
0.13600001,-0.162,-2.06800008
-0.026,-0.162,-2.06299996
0.006,-0.16500001,-2.06800008
0.04,-0.167,-2.06200004
0.072,-0.168,-2.04500008
0.105,-0.171,-2.03800011
0.13699999,-0.17200001,-2.01799989
-0.021,-0.164,-1.92200005
0.009,-0.16500001,-1.91499996
-0.23,-0.161,-1.94400001
-0.22499999,-0.156,-1.99600005
-0.223,-0.155,-2.08699989
-0.23800001,-0.142,-2.01099992
-0.20999999,-0.146,-2.08299994
-0.235,-0.139,-2.08500004
-0.198,-0.138,-2.08400011
-0.223,-0.131,-2.08599997
-0.186,-0.13,-2.08599997
-0.23800001,-0.119,-2.01300001
-0.20999999,-0.123,-2.08699989
-0.234,-0.115,-2.07999992
-0.23999999,-0.101,-1.94299996
-0.221,-0.108,-2.08400011
-0.23899999,-0.099,-2.0309999
-0.208,-0.1,-2.0769999
-0.23199999,-0.094,-2.08200002
-0.219,-0.087,-2.08200002
-0.23800001,-0.079,-2.05200005
-0.228,-0.073,-2.07500005
-0.23899999,-0.064,-1.98199999
-0.215,-0.067,-2.0769999
-0.236,-0.061,-2.06500006
-0.222,-0.054,-2.06399989
-0.20900001,-0.048,-2.06399989
0.212,0.036,-2.05699992
0.226,0.039,-2.05599999
0.207,0.041,-2.06800008
0.234,0.041,-2.00099993
0.221,0.043,-2.06500006
0.236,0.041,-1.90199995
0.235,0.046,-2.05900002
0.214,0.046,-2.06100011
0.23100001,0.044,-1.90699995
0.228,0.048,-2.05900002
0.208,0.049,-2.05699992
0.23100001,0.048,-1.95899999
0.223,0.051,-2.06299996
0.235,0.052,-2.03900003
0.21600001,0.052,-2.05800009
0.23199999,0.049,-1.89999998
0.23,0.053,-2.0539999
0.20900001,0.052,-2.04500008
0.228,0.05,-1.91299999
0.223,0.052,-2.04500008
0.23100001,0.051,-1.99199998
0.23199999,0.049,-1.88300002
0.132,-0.17200001,-1.98000002
-0.02,-0.16500001,-1.90699995
0.039,-0.171,-2.03600001
0.07,-0.17,-2.05200005
0.101,-0.168,-2.06599998
0.133,-0.167,-2.07399988
-0.027,-0.16500001,-2.06500006
0.034,-0.161,-2.079
0.065,-0.15700001,-2.06200004
0.096,-0.155,-2.06999993
0.127,-0.153,-2.07200003
-0.033,-0.15099999,-2.05900002
0.029,-0.147,-2.0769999
0.022,0.168,-2.08400011
0.054,0.17,-2.08599997
-0.108,0.17299999,-2.06200004
-0.044,0.178,-2.08100009
-0.011,0.18000001,-2.079
0.02,0.182,-2.08299994
0.053,0.185,-2.09100008
-0.109,0.18700001,-2.06200004
-0.045,0.192,-2.07299995
-0.012,0.192,-2.05699992
0.019,0.192,-2.03399992
0.05,0.191,-2.00600004
-0.107,0.19599999,-1.99800003
0.233,0.098,-1.89100003
0.233,0.097,-1.98899996
0.227,0.094,-2.04299998
0.214,0.088,-2.04999995
0.23,0.08,-1.91900003
0.234,0.081,-2.06699991
0.22,0.075,-2.05900002
0.233,0.068,-1.90499997
0.207,0.07,-2.06100011
0.237,0.067,-2.0480001
0.22499999,0.063,-2.06800008
0.236,0.056,-1.903
0.212,0.058,-2.06800008
0.235,0.054,-1.99699998
0.228,0.051,-2.05999994
0.215,0.047,-2.06599998
0.23,0.04,-2.05200005
0.21699999,0.036,-2.05800009
0.23100001,0.032,-1.91999996
0.204,0.032,-2.06699991
0.235,0.031,-2.06999993
0.22,0.027,-2.05900002
0.205,0.024,-2.05699992
-0.214,-0.013,-2.046
-0.23100001,-0.014,-2.06100011
-0.235,-0.014,-1.97000003
-0.21600001,-0.014,-2.06399989
-0.23100001,-0.014,-2.07299995
-0.236,-0.013,-1.99000001
-0.21600001,-0.013,-2.08100009
-0.23100001,-0.012,-2.079
-0.236,-0.011,-1.99899995
-0.214,-0.011,-2.0710001
-0.229,-0.01,-2.07500005
-0.234,-0.009,-1.99800003
-0.213,-0.007,-2.08200002
-0.23899999,-0.007,-1.92299998
-0.228,-0.006,-2.08299994
-0.233,-0.005,-2.00300002
-0.212,-0.003,-2.08200002
-0.23800001,-0.003,-1.92900002
-0.227,-0.001,-2.08599997
-0.233,0,-2.01300001
-0.23800001,0.001,-1.94299996
-0.106,0.198,-1.91999996
-0.075,0.19599999,-1.92299998
0.046,0.192,-1.94599998
-0.11,0.198,-2.05699992
-0.077,0.19599999,-2.06200004
-0.045,0.19499999,-2.06900001
-0.012,0.193,-2.06999993
0.02,0.192,-2.07599998
0.053,0.191,-2.08699989
-0.107,0.185,-2.06399989
-0.042,0.182,-2.08400011
-0.009,0.18000001,-2.07999992
0.023,0.178,-2.08200002
0.056,0.177,-2.08800006
-0.039,0.168,-2.08400011
-0.08,-0.14300001,-2.05800009
-0.016,-0.15000001,-2.08299994
0.016,-0.152,-2.06900001
0.048,-0.156,-2.079
0.08,-0.15800001,-2.0710001
-0.081,-0.15800001,-2.06599998
-0.017,-0.163,-2.06699991
0.015,-0.16599999,-2.06100011
0.046,-0.168,-2.05299997
0.078,-0.17,-2.04200006
-0.077,-0.162,-1.949
-0.237,-0.041,-2.0309999
-0.229,-0.039,-2.08400011
-0.215,-0.035,-2.08400011
-0.235,-0.031,-2.07299995
-0.222,-0.028,-2.08500004
-0.236,-0.023,-2.02200007
-0.208,-0.025,-2.08699989
-0.228,-0.021,-2.07800007
-0.23899999,-0.017,-1.98800004
-0.214,-0.018,-2.07500005
-0.235,-0.015,-2.07299995
-0.221,-0.013,-2.08400011
-0.237,-0.01,-2.03900003
-0.207,-0.011,-2.08400011
-0.227,-0.008,-2.07800007
-0.237,-0.006,-1.98599994
-0.212,-0.007,-2.0769999
-0.23199999,-0.005,-2.06100011
-0.21600001,-0.003,-2.0539999
0.20299999,-0.007,-2.05699992
0.21699999,-0.008,-2.05299997
0.233,-0.01,-2.06699991
0.212,-0.013,-2.06500006
0.23,-0.011,-1.91799998
0.226,-0.015,-2.06500006
0.205,-0.018,-2.05999994
0.23199999,-0.017,-1.98599994
0.219,-0.02,-2.05800009
0.237,-0.018,-1.91199994
0.23199999,-0.023,-2.04999995
0.213,-0.027,-2.06399989
0.229,-0.024,-1.90699995
0.227,-0.03,-2.06500006
0.205,-0.034,-2.05999994
0.23100001,-0.032,-1.97899997
0.219,-0.037,-2.05900002
0.23199999,-0.041,-2.0539999
0.20999999,-0.045,-2.046
0.228,-0.042,-1.90699995
0.22400001,-0.049,-2.05299997
0.227,-0.051,-1.96399999
0.23199999,-0.054,-1.89499998
0.043,-0.17,-2.0250001
0.075,-0.17,-2.05500007
-0.082,-0.16500001,-1.99000001
-0.053,-0.16599999,-2.04900002
-0.021,-0.16500001,-2.06500006
0.011,-0.163,-2.07299995
0.043,-0.16,-2.08200002
0.075,-0.15700001,-2.07399988
-0.086,-0.156,-2.06299996
-0.021,-0.15099999,-2.08200002
0.01,-0.148,-2.07299995
0.043,-0.146,-2.07800007
-0.086,-0.141,-2.06100011
0.012,0.16599999,-2.07999992
0.045,0.168,-2.07599998
0.078,0.17,-2.07500005
0.111,0.17200001,-2.08299994
-0.049,0.175,-2.06500006
0.016,0.18000001,-2.08400011
0.049,0.182,-2.0769999
0.082,0.184,-2.07999992
0.115,0.18700001,-2.08599997
-0.045,0.189,-2.06500006
-0.012,0.191,-2.06999993
0.019,0.192,-2.05699992
0.051,0.192,-2.03600001
0.083,0.191,-2.00699997
0.112,0.19,-1.97099996
-0.039,0.19400001,-1.97399998
0.23,-0.009,-1.88600004
0.23,-0.011,-2.00300002
0.221,-0.012,-2.046
0.233,-0.013,-1.89699996
0.206,-0.013,-2.03600001
0.23199999,-0.015,-2.00099993
0.22400001,-0.016,-2.0539999
0.235,-0.016,-1.90499997
0.208,-0.017,-2.04399991
0.23100001,-0.017,-1.98399997
0.226,-0.019,-2.05900002
0.236,-0.018,-1.898
0.211,-0.019,-2.06100011
0.23,-0.019,-1.96300006
0.227,-0.02,-2.05800009
0.212,-0.02,-2.05699992
0.23100001,-0.02,-1.95799994
0.228,-0.02,-2.06200004
0.214,-0.02,-2.06100011
0.23,-0.019,-1.94599998
0.229,-0.019,-2.05900002
0.214,-0.018,-2.05500007
-0.21799999,0.032,-2.046
-0.233,0.037,-2.05699992
-0.236,0.039,-1.96599996
-0.21799999,0.043,-2.07800007
-0.23199999,0.048,-2.07299995
-0.21600001,0.054,-2.08500004
-0.23,0.06,-2.08500004
-0.234,0.062,-2.00500011
-0.211,0.067,-2.07999992
-0.23800001,0.065,-1.93299997
-0.22499999,0.072,-2.08299994
-0.233,0.076,-2.03299999
-0.208,0.08,-2.09100008
-0.221,0.086,-2.09200001
-0.23199999,0.091,-2.06699991
-0.21600001,0.101,-2.08800006
-0.23,0.108,-2.09699988
-0.233,0.11,-2.01399994
-0.237,0.113,-1.94500005
-0.041,0.193,-1.94500005
0.05,0.192,-1.99000001
0.082,0.19,-1.99000001
0.114,0.19,-2.00300002
-0.045,0.19,-2.06200004
0.019,0.18799999,-2.079
0.051,0.186,-2.07599998
0.084,0.184,-2.07999992
0.117,0.183,-2.08200002
-0.047,0.176,-2.06699991
0.017,0.17399999,-2.08400011
0.049,0.17200001,-2.0769999
0.082,0.17,-2.0769999
0.114,0.168,-2.0769999
-0.12800001,-0.142,-2.05599999
-0.067,-0.149,-2.07999992
-0.036,-0.15099999,-2.07500005
-0.005,-0.153,-2.08100009
0.025,-0.156,-2.08699989
-0.134,-0.156,-2.06299996
-0.104,-0.15899999,-2.07599998
-0.073,-0.162,-2.07599998
-0.042,-0.164,-2.07299995
-0.011,-0.16500001,-2.06200004
0.019,-0.168,-2.06800008
-0.13500001,-0.163,-1.98699999
0.012,-0.169,-1.92400002
-0.235,0.061,-1.954
-0.233,0.064,-2.05900002
-0.237,0.06,-1.92700005
-0.221,0.063,-2.0769999
-0.233,0.062,-2.00399995
-0.206,0.062,-2.07200003
-0.227,0.063,-2.08400011
-0.234,0.059,-1.96800005
-0.213,0.061,-2.08400011
-0.23100001,0.06,-2.06399989
-0.236,0.056,-1.93200004
-0.21699999,0.058,-2.06999993
-0.234,0.057,-2.03299999
-0.22499999,0.056,-2.08400011
-0.236,0.052,-2
-0.20999999,0.053,-2.08400011
-0.23,0.051,-2.07299995
-0.236,0.047,-1.954
-0.21600001,0.048,-2.0769999
-0.234,0.046,-2.05100012
-0.221,0.043,-2.05900002
-0.207,0.039,-2.06399989
0.20999999,-0.054,-2.05800009
0.223,-0.061,-2.05699992
0.20100001,-0.067,-2.06699991
0.234,-0.067,-2.03900003
0.214,-0.074,-2.06500006
0.23199999,-0.069,-1.91799998
0.227,-0.081,-2.06800008
0.204,-0.087,-2.06299996
0.23199999,-0.085,-1.995
0.21699999,-0.094,-2.06299996
0.234,-0.088,-1.91100001
0.229,-0.102,-2.05900002
0.206,-0.109,-2.06299996
0.229,-0.104,-1.95299995
0.21799999,-0.117,-2.06299996
0.23,-0.125,-2.06100011
0.206,-0.132,-2.05800009
0.227,-0.124,-1.93400002
0.21699999,-0.14,-2.05299997
0.235,-0.13,-1.90799999
0.229,-0.148,-2.05500007
0.204,-0.155,-2.046
0.227,-0.147,-1.93400002
0.215,-0.164,-2.04500008
0.233,-0.153,-1.89600003
0.226,-0.17200001,-2.03699994
0.223,-0.17,-1.91299999
0.016,-0.167,-1.99600005
-0.13500001,-0.16,-1.90900004
-0.108,-0.164,-1.98300004
-0.078,-0.16500001,-2.03800011
-0.045,-0.164,-2.05800009
-0.012,-0.163,-2.07800007
0.021,-0.16,-2.07800007
-0.142,-0.16,-2.06699991
-0.075,-0.155,-2.08100009
-0.041,-0.15099999,-2.07200003
-0.008,-0.15000001,-2.08299994
0.025,-0.147,-2.079
-0.13699999,-0.145,-2.06100011
-0.071,-0.141,-2.07999992
0.106,0.161,-2.0710001
0.14,0.164,-2.0769999
0.17399999,0.16599999,-2.07999992
0.015,0.167,-2.06800008
0.082,0.17200001,-2.0769999
0.115,0.17299999,-2.07200003
0.148,0.176,-2.0769999
0.182,0.178,-2.07800007
0.023,0.17900001,-2.06399989
0.09,0.184,-2.07999992
0.123,0.185,-2.06900001
0.15700001,0.18799999,-2.07500005
0.032,0.191,-2.06800008
0.064,0.192,-2.05999994
0.096,0.192,-2.03399992
0.127,0.191,-2.00900006
0.15700001,0.19,-1.97399998
0.038,0.193,-1.96800005
0.236,-0.114,-1.88100004
0.22499999,-0.112,-1.89900005
0.228,-0.118,-2.04200006
0.214,-0.114,-2.04299998
0.227,-0.107,-1.90400004
0.2,-0.111,-2.04500008
0.23,-0.112,-2.04900002
0.21699999,-0.109,-2.05699992
0.228,-0.101,-1.89400005
0.204,-0.105,-2.05999994
0.23100001,-0.105,-2.03699994
0.22,-0.102,-2.06100011
0.23100001,-0.094,-1.90199995
0.206,-0.097,-2.06299996
0.23100001,-0.095,-2.01399994
0.222,-0.093,-2.05999994
0.234,-0.086,-1.91199994
0.208,-0.088,-2.05999994
0.23100001,-0.086,-1.99800003
0.22499999,-0.083,-2.06399989
0.236,-0.077,-1.90900004
0.211,-0.078,-2.06500006
0.229,-0.074,-1.96200001
0.227,-0.072,-2.06100011
0.213,-0.066,-2.05599999
0.20100001,-0.061,-2.06100011
-0.213,0.085,-2.06500006
-0.226,0.095,-2.06900001
-0.234,0.102,-2.04099989
-0.206,0.106,-2.07800007
-0.237,0.107,-1.96500003
-0.21799999,0.115,-2.07599998
-0.229,0.124,-2.07299995
-0.235,0.131,-2.02800012
-0.20900001,0.13600001,-2.08400011
-0.236,0.13500001,-1.949
-0.22,0.146,-2.08400011
-0.23100001,0.155,-2.07800007
-0.234,0.16,-2.01300001
-0.20999999,0.167,-2.08299994
-0.236,0.164,-1.94000006
-0.22,0.178,-2.08500004
-0.18799999,0.18000001,-2.08599997
-0.155,0.182,-2.08599997
-0.23,0.18700001,-2.07500005
